2100
-10 26.9873 -38.7181		
-10 22.1767 48.9676		
-10 -35.7479 -8.05466		
-10 26.6123 -44.0093		
-10 -16.8839 -44.7625		
-10 43.0268 35.6661		
-10 -17.4301 -11.0201		
-10 8.98999 -18.2064		
-10 -7.7118 45.4957		
-10 38.2885 12.64		
-10 -5.41079 -8.69485		
-10 12.8667 8.71053		
-10 -40.3009 45.6997		
-10 24.8025 47.1677		
-10 -18.2495 -34.7999		
-10 39.4312 -22.0329		
-10 -35.4194 -15.3052		
-10 -5.98256 -39.2426		
-10 -30.6072 12.8918		
-10 -36.6031 -3.71171		
-10 -12.2874 45.6479		
-10 25.1415 -49.7364		
-10 -44.1181 49.7591		
-10 -8.97074 45.833		
-10 -43.2201 -45.6329		
-10 2.6697 11.683		
-10 33.0919 -49.6593		
-10 -2.40514 -3.41367		
-10 -29.127 -26.957		
-10 -39.2493 6.54672		
-10 23.948 18.1403		
-10 -7.24101 -27.5466		
-10 29.9799 18.383		
-10 16.4709 -46.4217		
-10 -30.6182 -34.6516		
-10 -5.76652 12.8054		
-10 2.56707 -43.9133		
-10 -33.3616 -37.8933		
-10 -23.3462 -45.4526		
-10 -32.503 29.8384		
-10 -3.49671 -28.9683		
-10 -48.567 23.6631		
-10 -18.4729 -23.8655		
-10 -15.6343 -6.24939		
-10 -2.15266 -32.91		
-10 16.7462 14.7619		
-10 19.5726 1.66922		
-10 39.6263 -46.0206		
-10 47.9944 -7.16437		
-10 -22.9961 -44.8069		
-10 10.8608 -39.7798		
-10 -42.6788 10.0605		
-10 -10.9798 49.0545		
-10 -42.7261 -33.5597		
-10 -23.1859 9.30566		
-10 -30.3904 -1.34147		
-10 14.4871 42.8488		
-10 14.1495 -32.218		
-10 -27.0856 43.2477		
-10 -24.729 18.4071		
-10 45.609 30.6579		
-10 47.0067 -30.9505		
-10 -16.0645 36.8626		
-10 -37.0343 2.24362		
-10 24.9152 -28.5878		
-10 -23.4393 -24.8373		
-10 -46.8752 33.1468		
-10 -32.031 49.1895		
-10 -16.9005 23.6715		
-10 -2.76956 47.0433		
-10 0.205391 18.0981		
-10 -32.9145 -13.0056		
-10 27.9577 -25.4119		
-10 34.806 14.2646		
-10 -37.4699 -29.0604		
-10 33.0976 -9.6524		
-10 -13.9589 -37.3156		
-10 0.464849 45.4326		
-10 2.48593 -29.9612		
-10 32.2912 12.1421		
-10 43.6524 -17.6758		
-10 34.5631 -35.9614		
-10 44.7353 -10.2021		
-10 32.1774 -49.084		
-10 -28.1079 33.5837		
-10 -40.7066 -43.0452		
-10 33.3451 46.4486		
-10 -15.5137 10.6626		
-10 -28.5822 -48.5226		
-10 -2.53863 0.544767		
-10 15.7858 -23.518		
-10 36.7862 27.9349		
-10 30.6143 -16.1491		
-10 41.2776 11.9338		
-10 47.5412 -9.98769		
-10 -23.0205 -44.4188		
-10 -9.56695 9.78307		
-10 -43.3831 44.7989		
-10 44.9515 -22.5341		
-10 -43.6441 -6.42937		
-10 43.6684 33.8785		
-10 -1.03902 23.5767		
-10 4.2934 31.1717		
-10 30.6633 -47.9091		
-10 23.5052 44.0317		
-10 -34.7413 36.0288		
-10 24.3476 -28.0606		
-10 5.42277 -10.3932		
-10 -27.7188 36.9149		
-10 -41.7054 40.4831		
-10 -10.9542 2.57134		
-10 18.6118 22.1416		
-10 -43.9771 23.3903		
-10 -47.5037 38.4573		
-10 -48.4018 49.7839		
-10 -26.6695 12.6969		
-10 -5.80533 -1.92325		
-10 47.9582 -29.6019		
-10 7.57172 36.1542		
-10 -38.6542 -15.7406		
-10 48.9154 0.720667		
-10 -8.04454 -1.63015		
-10 33.1012 -38.71		
-10 -20.588 -12.1726		
-10 34.5087 33.7543		
-10 -34.2106 23.6021		
-10 -17.9126 -11.5948		
-10 35.7286 16.3451		
-10 -17.4042 -34.1517		
-10 23.5846 3.80827		
-10 -17.1934 -21.2124		
-10 -23.4318 -5.66556		
-10 15.2661 13.6198		
-10 -45.848 -37.5032		
-10 32.9543 -1.46907		
-10 37.5472 -44.4854		
-10 -3.31461 -37.4536		
-10 23.1167 -20.8356		
-10 32.7179 13.5		
-10 12.4878 27.944		
-10 17.3611 45.1173		
-10 -6.21946 -10.0377		
-10 -10.0332 -41.7771		
-10 46.009 46.2941		
-10 20.0728 5.16037		
-10 -30.3977 2.64759		
-10 7.64963 44.4093		
-10 -17.4016 46.3933		
-10 -22.9383 -39.8422		
-10 7.29854 -31.187		
-10 -32.5113 -30.5408		
-10 -31.9336 28.0051		
-10 41.8384 -26.2956		
-10 39.9123 -34.2314		
-10 -24.8591 28.0801		
-10 -45.5481 -24.7368		
-10 -35.3214 -1.60428		
-10 -0.925602 11.4792		
-10 -36.4487 -32.4164		
-10 6.91274 37.4875		
-10 -32.2093 -40.5769		
-10 -34.4001 2.48967		
-10 -44.7544 18.4208		
-10 48.5349 49.2854		
-10 48.7258 -17.0198		
-10 40.3159 -9.25183		
-10 20.0899 -4.33926		
-10 -28.0129 -48.2695		
-10 20.1395 5.61477		
-10 -20.4288 -44.4398		
-10 -28.0702 -3.85629		
-10 48.4037 -1.44663		
-10 -1.13374 0.856797		
-10 -0.980566 6.5011		
-10 45.6099 -17.2236		
-10 24.6948 -16.8534		
-10 -20.3867 -18.1564		
-10 38.9198 -43.6819		
-10 11.9508 25.4446		
-10 -6.59654 43.3375		
-10 8.71358 -7.40631		
-10 9.33929 -26.1699		
-10 -12.9103 -8.35595		
-10 -39.6055 7.75755		
-10 -31.8158 14.644		
-10 35.2984 -41.0121		
-10 -23.6744 -2.86329		
-10 -29.1887 15.9576		
-10 -38.8586 46.4032		
-10 28.6489 -38.7388		
-10 -2.7578 -0.817443		
-10 -32.7763 37.9632		
-10 -25.9998 -21.0732		
-10 -30.5109 4.64763		
-10 16.6209 23.5658		
-10 -41.3387 -11.6144		
-10 -21.0338 47.078		
-10 -8.93044 -24.6849		
-10 -17.8862 26.554		
-10 -36.1459 18.1463		
-10 7.95058 11.9689		
-10 10.1994 29.26		
-10 41.1101 27.384		
-10 45.4685 33.4411		
-10 -47.0404 42.5427		
-10 44.6999 -36.8871		
-10 32.7144 16.4566		
-10 -27.6733 -43.0429		
-10 -34.2739 44.5874		
-10 -22.3677 18.4855		
-10 -21.2762 -5.0465		
-10 47.0355 -12.9325		
-10 49.2097 -6.79993		
-10 33.6884 19.1581		
-10 -27.2413 -22.8903		
-10 -18.2465 11.3705		
-10 -34.758 0.521086		
-10 -43.6604 -42.8971		
-10 -7.80187 19.6668		
-10 -24.3631 48.7163		
-10 48.939 -15.1584		
-10 -49.8771 -25.4505		
-10 1.27423 -36.7074		
-10 5.90588 37.8202		
-10 47.9839 -46.2677		
-10 -0.864737 -36.6913		
-10 -4.03551 3.19994		
-10 -37.1772 20.2058		
-10 0.234916 34.7873		
-10 -46.8701 0.0769512		
-10 23.3742 -4.79195		
-10 -5.07254 -3.2972		
-10 49.8282 -39.4204		
-10 44.8514 -22.0161		
-10 37.2036 33.3554		
-10 -44.7847 -27.0697		
-10 -2.76428 -27.9057		
-10 32.5774 -42.535		
-10 -15.5398 14.631		
-10 5.23973 -18.3877		
-10 7.74983 -30.5674		
-10 -45.1796 24.2931		
-10 -38.7785 14.6513		
-10 31.4657 22.9548		
-10 42.7202 49.0019		
-10 40.3669 38.0281		
-10 12.8573 1.51492		
-10 48.9899 -14.6191		
-10 48.7046 42.4642		
-10 5.93873 -4.8318		
-10 -27.3658 5.62767		
-10 25.599 7.13177		
-10 -14.4068 -42.6124		
-10 24.8697 14.0796		
-10 37.511 -45.9145		
-10 -29.5835 -20.5174		
-10 -6.44433 -15.8556		
-10 -37.6839 20.4165		
-10 49.4386 1.12934		
-10 17.5927 -42.8129		
-10 17.0309 -46.085		
-10 37.9415 -17.6486		
-10 -49.4001 8.54713		
-10 -32.0891 12.9339		
-10 7.47305 -11.6313		
-10 -10.5455 -24.7194		
-10 -20.2899 -17.4225		
-10 36.4737 11.7086		
-10 -13.1818 3.46764		
-10 40.2324 7.33234		
-10 43.9263 -17.154		
-10 -6.69908 45.6898		
-10 15.1103 16.0847		
-10 12.1267 -9.21214		
-10 32.5326 34.4265		
-10 4.03385 38.747		
-10 29.1154 -49.6316		
-10 -27.7813 42.6011		
-10 2.27377 49.3125		
-10 -49.0857 -28.5409		
-10 37.1258 -7.98583		
-10 -48.9953 25.9545		
-10 48.588 43.736		
-10 -14.7123 5.06486		
-10 -17.7485 49.3256		
-10 32.4746 38.552		
-10 14.9432 -25.7939		
-10 -27.9762 16.3355		
-10 39.3296 -13.4174		
-10 -37.4028 -26.9071		
-10 30.8057 -0.878476		
-10 -14.4389 28.3372		
-10 -46.7376 6.10278		
-10 34.4732 -8.46494		
-10 22.6955 31.5958		
-10 -26.4392 16.6827		
-10 21.7798 -10.3693		
-10 42.7418 -9.84356		
-10 3.40017 30.1084		
-10 -10.282 47.4193		
-10 -25.9811 39.6081		
-10 7.54091 -37.9841		
-10 -44.9277 21.9266		
-10 18.9938 34.2387		
-10 -9.29458 -6.55061		
-10 20.2995 23.8863		
-10 -23.6016 38.8276		
-10 -14.4229 -13.0357		
-10 29.3111 39.9447		
-10 44.5283 -20.4546		
-10 -23.8451 2.43996		
-10 -29.477 -3.50355		
-10 15.4678 -34.071		
-10 39.6465 -39.9679		
-10 -33.5194 -49.4126		
-10 49.4129 11.4357		
-10 18.3792 -37.145		
-10 -39.2417 -29.0706		
-10 49.8034 -26.6734		
-10 -15.4968 -15.0127		
-10 -45.3333 -42.4752		
-10 -41.7704 26.5446		
-10 37.8584 -42.077		
-10 -34.3157 -24.8264		
-10 30.5731 8.01871		
-10 -41.7892 37.3317		
-10 -32.5597 -10.9331		
-10 -29.3007 36.4146		
-10 24.1353 12.9873		
-10 -3.50034 13.2086		
-10 -36.8963 4.09133		
-10 -20.9939 2.16032		
-10 -2.16919 -37.8557		
-10 -23.0611 5.84113		
-10 13.6091 14.06		
-10 -45.9593 3.3465		
-10 -36.1175 -35.0385		
-10 -21.1112 -25.3003		
-10 -6.42836 40.5817		
-10 38.5518 2.88718		
-10 -24.9034 14.8017		
-10 4.00301 -32.7324		
-10 -5.95664 43.2722		
-10 -12.3636 -5.04203		
-10 46.7261 11.0337		
-10 19.4801 36.7526		
-10 16.1037 -22.5028		
-10 -4.12444 39.5654		
-10 -31.0552 -36.8338		
-10 9.7352 29.9975		
-10 18.7468 -28.6969		
-10 19.5236 -3.54831		
-10 40.0395 40.8187		
-10 -23.2168 5.40319		
-10 -32.23 -16.1463		
-10 40.3788 -17.6873		
-10 -17.4227 7.3007		
-10 3.83713 -10.1581		
-10 4.1736 -40.2755		
-10 6.70824 -18.6308		
-10 -48.9547 -25.4692		
-10 43.8588 31.124		
-10 -27.062 -48.8952		
-10 29.4499 18.4478		
-10 -48.1975 -9.31636		
-10 7.55314 -35.0593		
-10 -39.0419 -45.0812		
-10 38.1977 -35.6307		
-10 -25.6673 30.4506		
-10 -31.8614 -38.6034		
-10 -24.5482 7.39951		
-10 -3.35724 27.4945		
-10 3.58586 -22.1867		
-10 -3.21071 10.2921		
-10 -48.1373 11.0343		
-10 9.67385 -21.4445		
-10 -24.0625 -17.7773		
-10 3.67987 36.7877		
-10 -37.8673 -26.7924		
-10 26.7735 -39.7915		
-10 -8.28466 -17.0818		
-10 11.349 33.6252		
-10 -24.4618 20.5316		
-10 6.04543 0.242131		
-10 18.0448 3.84415		
-10 47.8365 -24.7461		
-10 9.38497 -32.8543		
-10 19.2131 -21.9159		
-10 -49.8665 18.7956		
-10 -29.4199 -4.96142		
-10 16.3071 -47.3287		
-10 -17.8563 -34.3809		
-10 -27.2942 -15.5013		
-10 43.0732 -0.565983		
-10 17.3562 -43.4125		
-10 7.51735 -47.5272		
-10 13.2923 -9.29546		
-10 25.7091 23.4977		
-10 16.9364 24.1726		
-10 8.82719 13.3698		
-10 12.9171 19.1594		
-10 38.9478 2.7546		
-10 33.8324 8.60419		
-10 -23.2243 -15.6798		
-10 -20.7486 -28.4051		
-10 -25.9368 11.8797		
-10 42.936 27.4293		
-10 -6.23303 46.6524		
-10 37.9544 -3.24623		
-10 -31.9616 -32.0545		
-10 2.70325 -35.2164		
-10 27.7113 -13.1844		
-10 -25.9919 39.7437		
-10 -24.6598 24.2031		
-10 -35.8504 23.1421		
-10 -20.3657 26.8796		
-10 -16.9347 8.9275		
-10 -12.9894 -35.1211		
-10 -49.5402 39.2148		
-10 37.0268 34.4499		
-10 -44.7002 46.4308		
-10 -0.965926 17.7923		
-10 -19.8127 -34.532		
-10 9.4367 45.3478		
-10 -4.59837 -33.2312		
-10 -40.4621 -26.5642		
-10 11.5823 23.3303		
-10 42.012 35.633		
-10 43.8341 -37.26		
-10 43.7505 -27.2951		
-10 -19.6624 -24.2165		
-10 -49.4075 20.1656		
-10 19.5955 27.9693		
-10 34.948 48.041		
-10 3.1002 -26.6365		
-10 -42.5206 13.8255		
-10 -5.41632 38.0727		
-10 -49.9403 -0.921004		
-10 -23.862 37.3589		
-10 4.90162 13.4677		
-10 14.7341 29.2236		
-10 14.0709 -33.6012		
-10 12.0709 35.4462		
-10 6.15084 -0.647146		
-10 -14.0434 48.3838		
-10 28.5526 -44.8996		
-10 41.1172 6.36841		
-10 -34.1241 16.4203		
-10 -41.5085 29.6474		
-10 -15.7828 12.3467		
-10 -49.1438 -47.942		
-10 43.8128 -9.4516		
-10 -12.5701 -7.13284		
-10 8.56263 34.5706		
-10 -15.9044 14.9941		
-10 -40.9797 29.0218		
-10 42.4235 -21.6449		
-10 -3.92644 7.55307		
-10 -23.5729 13.0581		
-10 48.2898 -6.14749		
-10 38.8035 38.5773		
-10 3.14752 -22.5307		
-10 -2.56914 -31.0945		
-10 -32.6346 14.6448		
-10 -44.1367 31.0388		
-10 -42.2046 -47.5543		
-10 33.6576 22.8477		
-10 41.7688 -29.5332		
-10 16.9522 -31.4648		
-10 -7.88276 35.962		
-10 -48.6169 29.0898		
-10 7.29338 -49.1152		
-10 34.5779 34.389		
-10 -0.943483 -26.4317		
-10 44.3505 -43.2755		
-10 -30.3285 23.7527		
-10 31.0449 -6.1639		
-10 31.1458 -7.09102		
-10 20.0091 14.9434		
-10 -19.819 36.9189		
-10 25.9654 34.2726		
-10 11.8118 -41.8318		
-10 -41.3701 8.64126		
-10 3.56515 18.9949		
-10 31.4117 -25.0219		
-10 14.3047 1.22437		
-10 19.9268 0.966747		
-10 -11.4416 -13.0847		
-10 34.7449 -27.8491		
-10 -34.0179 -48.8046		
-10 11.5198 25.6631		
-10 4.62503 -15.2438		
-10 6.37974 -38.1226		
-10 -38.6551 38.4316		
-10 -2.76948 21.1519		
-10 45.2043 -40.8096		
-10 -18.9684 33.755		
-10 2.02921 49.4262		
-10 -24.609 11.4854		
-10 -5.60375 20.1869		
-10 7.32139 27.9207		
-10 -27.6673 28.7773		
-10 39.4091 -39.7581		
-10 -23.002 -41.458		
-10 41.26 45.0191		
-10 -22.2635 -25.1881		
-10 8.90691 -27.2913		
-10 -46.9493 -14.6106		
-10 -46.7657 -24.468		
-10 -35.6824 4.48906		
-10 -36.2278 13.7231		
-10 1.36551 31.9058		
-10 6.28615 -31.4717		
-10 -31.6649 41.7205		
-10 -10.4134 -45.6396		
-10 -29.577 38.6123		
-10 -0.936084 3.79168		
-10 28.0266 43.0279		
-10 -13.0693 46.1148		
-10 41.664 17.0147		
-10 43.4578 10.9293		
-10 -10.3105 -16.0753		
-10 -28.267 13.6518		
-10 -24.8589 -8.13412		
-10 28.904 31.3194		
-10 37.8957 -33.8654		
-10 42.772 -42.9974		
-10 -47.0551 -4.49053		
-10 2.81202 29.331		
-10 -4.51265 -49.2663		
-10 -45.2327 27.1837		
-10 -46.5419 37.3301		
-10 44.1908 45.5385		
-10 -15.3669 39.469		
-10 16.0434 12.8554		
-10 -21.0184 -43.6886		
-10 -4.57084 -6.04244		
-10 1.20222 -37.5726		
-10 -38.47 -39.1924		
-10 -10.1297 42.2646		
-10 -27.7659 -19.7214		
-10 -36.4832 44.137		
-10 -21.0504 -42.1927		
-10 5.03546 -21.7718		
-10 43.9216 34.7661		
-10 -24.7798 11.6115		
-10 -38.1526 44.5395		
-10 29.7792 10.494		
-10 -31.5042 24.0159		
-10 -0.220012 18.9684		
-10 -1.5227 -33.2144		
-10 -25.9973 -42.5428		
-10 -25.8811 -19.7626		
-10 -48.1105 19.1003		
-10 34.2761 13.9979		
-10 -10.2335 -30.5216		
-10 -44.2188 -38.0742		
-10 -25.1954 24.9205		
-10 -28.9935 -15.5032		
-10 43.1625 9.02421		
-10 -27.0766 22.8028		
-10 -44.5705 33.9641		
-10 2.54541 41.6401		
-10 -14.9229 -14.9657		
-10 23.781 -18.1608		
-10 -25.3416 25.4033		
-10 -43.1396 -6.25084		
-10 18.1759 34.334		
-10 -6.80694 47.5094		
-10 -29.2062 -36.1547		
-10 37.1304 -21.0329		
-10 -34.1651 -40.7869		
-10 -26.0269 -33.6189		
-10 -30.36 6.47698		
-10 38.2623 34.5075		
-10 22.8206 0.96985		
-10 11.687 26.8793		
-10 37.9074 -20.1271		
-10 31.2785 -29.4591		
-10 -37.965 -34.9187		
-10 -3.13006 47.9006		
-10 4.28493 -32.8019		
-10 35.097 35.0855		
-10 -39.9578 -29.5295		
-10 -3.48728 -48.9843		
-10 -31.5415 48.7841		
-10 36.3312 -15.9809		
-10 -25.8395 26.6124		
-10 -40.049 -0.836033		
-10 -15.8924 48.7464		
-10 -33.5956 -37.1647		
-10 25.0044 44.8256		
-10 -5.74765 2.74726		
-10 23.9732 45.7371		
-10 -48.0293 30.899		
-10 13.482 -31.4167		
-10 -49.9882 -5.78431		
-10 38.0734 23.1365		
-10 32.1199 -3.78253		
-10 -44.8771 4.25996		
-10 2.60512 -35.3101		
-10 -7.07928 48.1868		
-10 47.1742 -24.4195		
12.7718 -10 -46.5358		
-34.8124 -10 -35.6534		
41.1322 -10 27.5948		
-18.6036 -10 37.6119		
43.896 -10 47.816		
-24.158 -10 18.8334		
-14.8546 -10 -13.9219		
-12.6628 -10 -30.0139		
-34.7973 -10 32.6952		
46.7441 -10 -44.7145		
-47.5053 -10 12.1328		
0.139352 -10 23.597		
-18.6735 -10 -47.9331		
-29.5944 -10 32.1645		
-36.8316 -10 1.26593		
-29.7881 -10 37.2657		
-32.5006 -10 44.5988		
-26.3318 -10 4.23342		
-25.0115 -10 -1.0997		
-36.9081 -10 -4.90171		
39.0441 -10 46.2559		
9.38614 -10 48.3841		
-29.8868 -10 -29.8236		
33.8822 -10 33.4826		
46.4598 -10 -12.4553		
20.2508 -10 11.9935		
8.05356 -10 33.5909		
38.7283 -10 -45.0856		
17.5331 -10 38.0632		
-15.5882 -10 3.30786		
-16.0957 -10 40.2266		
17.5787 -10 35.0106		
-28.6629 -10 -30.9603		
-22.7693 -10 38.2272		
-1.84312 -10 -24.6971		
-19.3689 -10 -24.3429		
-41.2176 -10 18.1327		
-9.55541 -10 39.4747		
-27.6679 -10 -10.2435		
26.0773 -10 -39.9287		
24.628 -10 11.9901		
40.6711 -10 -33.474		
-28.7605 -10 38.3752		
-26.3078 -10 26.7179		
23.9954 -10 -23.9062		
-20.6297 -10 -43.8987		
-38.0395 -10 22.4882		
14.2578 -10 5.74943		
-30.7771 -10 21.765		
42.7036 -10 -29.827		
-5.66314 -10 -11.3806		
-14.0109 -10 -26.4444		
-34.1033 -10 -8.46372		
-40.6888 -10 -40.3727		
-42.5526 -10 26.4074		
-33.4518 -10 44.4984		
-39.7811 -10 -40.4057		
25.7655 -10 17.9821		
-27.0439 -10 11.0473		
-36.7752 -10 19.3301		
-34.8865 -10 -19.9536		
39.6034 -10 -39.5848		
33.6993 -10 42.3928		
-47.9477 -10 -16.1077		
-41.1546 -10 -38.9576		
-14.4801 -10 -7.59888		
38.3559 -10 -15.271		
-17.3898 -10 36.3768		
-24.2795 -10 47.1785		
3.50866 -10 48.6815		
1.96863 -10 -0.494914		
22.5061 -10 18.6665		
5.26331 -10 10.3559		
-11.2142 -10 -46.1819		
-2.98267 -10 -3.7856		
8.72725 -10 39.6731		
-20.5532 -10 -20.1103		
14.1022 -10 -26.5578		
-43.3615 -10 34.0328		
34.6893 -10 -13.5678		
15.6543 -10 16.5093		
16.1482 -10 11.7811		
42.6387 -10 -5.45214		
46.1785 -10 14.9921		
-16.7007 -10 -40.9753		
12.0488 -10 -17.9709		
-0.931778 -10 -47.8974		
-21.4183 -10 -44.3129		
-40.0541 -10 -7.45279		
-47.6688 -10 36.4356		
-42.1243 -10 2.98559		
40.0178 -10 -10.7087		
-44.6074 -10 -1.70599		
-47.6874 -10 32.3642		
-39.8448 -10 -21.6042		
15.1956 -10 -25.3323		
-41.735 -10 -16.2055		
12.3713 -10 -12.7136		
-14.1336 -10 18.3694		
11.0769 -10 -38.2979		
-3.29401 -10 -37.2439		
46.3029 -10 14.6084		
28.9274 -10 -7.47649		
-26.6283 -10 -36.4584		
24.2141 -10 5.17707		
27.5261 -10 27.9844		
-29.9429 -10 -39.5854		
-33.0179 -10 17.0018		
-0.849532 -10 -12.2177		
23.5321 -10 46.1356		
25.1039 -10 -13.4788		
-8.61777 -10 -2.83089		
35.7227 -10 -35.6676		
-17.1494 -10 -27.4789		
-20.4721 -10 -14.0799		
-26.6472 -10 16.3456		
40.1225 -10 8.27132		
-27.5511 -10 -48.8931		
39.6273 -10 -2.10408		
-26.6981 -10 40.6187		
43.6225 -10 37.2469		
-26.8562 -10 -17.2566		
-35.0494 -10 13.7434		
-21.6014 -10 -47.199		
46.0284 -10 48.6019		
7.9983 -10 -1.04528		
-5.4602 -10 -44.4026		
13.5748 -10 11.2717		
-32.6906 -10 18.4183		
30.7339 -10 5.01331		
-8.27203 -10 0.730019		
-8.3377 -10 -39.3007		
34.2321 -10 37.1719		
3.77977 -10 30.7109		
-46.8812 -10 8.67712		
-29.9973 -10 29.6267		
-24.1757 -10 30.6161		
-48.2454 -10 1.64875		
33.5421 -10 41.5189		
-37.0937 -10 -2.58152		
25.878 -10 48.3795		
30.4763 -10 -9.76041		
-19.6094 -10 -36.1756		
-8.306 -10 45.0797		
42.0095 -10 -4.06169		
48.2813 -10 -18.9824		
30.8851 -10 -35.0896		
-44.3235 -10 -13.9611		
-49.8548 -10 17.0871		
-9.06141 -10 -13.6643		
-35.9772 -10 17.0707		
31.6918 -10 -24.5328		
36.337 -10 -47.5299		
19.4902 -10 -31.1076		
-1.51031 -10 22.0284		
-3.92342 -10 -44.2089		
-14.2553 -10 35.3529		
40.4954 -10 -28.4467		
-47.0115 -10 -28.8754		
-33.7157 -10 18.759		
-1.28838 -10 -33.7551		
-23.2443 -10 -37.5294		
-9.31416 -10 -49.6211		
49.9326 -10 -9.2294		
-12.5788 -10 -6.42941		
-10.736 -10 40.3473		
31.222 -10 -44.1513		
42.3358 -10 -15.3367		
-1.05164 -10 33.5145		
-29.301 -10 -24.19		
26.9327 -10 35.014		
40.7872 -10 19.6114		
44.4604 -10 -44.787		
47.2905 -10 2.65251		
14.6854 -10 -40.2362		
-31.2185 -10 17.9965		
-45.151 -10 -1.0229		
48.3357 -10 11.7366		
40.3963 -10 18.6467		
30.3451 -10 13.9289		
-10.211 -10 -41.2966		
4.97179 -10 3.92726		
-5.96336 -10 -4.85604		
15.8526 -10 -48.8518		
14.224 -10 -29.0862		
17.9315 -10 19.7111		
6.67362 -10 -16.5676		
-17.8225 -10 -14.8012		
-46.1979 -10 48.5911		
-25.5935 -10 8.29093		
-13.6035 -10 1.41285		
5.75949 -10 -14.5532		
-35.3855 -10 -38.8717		
48.0574 -10 -39.1108		
-17.7439 -10 43.5765		
-2.26837 -10 46.7189		
-16.1333 -10 49.8982		
-12.0866 -10 19.0432		
-24.0069 -10 -16.6118		
22.1556 -10 -6.28499		
18.8787 -10 -7.73792		
33.2698 -10 -40.8617		
-2.91708 -10 -21.7035		
-6.69265 -10 -48.5245		
-13.8295 -10 27.354		
15.9442 -10 9.48889		
31.8678 -10 46.5787		
-4.57859 -10 -44.7589		
-8.42824 -10 -34.4555		
-37.2016 -10 -4.89732		
14.548 -10 -3.34155		
-45.4133 -10 -32.1665		
-18.3157 -10 41.3351		
47.8479 -10 -38.2165		
-48.9432 -10 34.4745		
20.3649 -10 35.0755		
34.0524 -10 3.94538		
32.223 -10 40.9314		
-42.691 -10 -20.7014		
-39.0673 -10 9.04423		
35.52 -10 46.8228		
2.29871 -10 -39.3696		
-31.4799 -10 37.8952		
-40.1846 -10 -30.3564		
-15.8738 -10 -5.63451		
-20.937 -10 -44.4898		
28.7923 -10 -23.1702		
-11.2654 -10 43.8816		
-29.4723 -10 26.3143		
37.0695 -10 -45.4256		
-34.1184 -10 -40.6011		
32.3982 -10 -13.1079		
-0.223429 -10 -0.0907467		
-9.27064 -10 19.4436		
7.80206 -10 28.7411		
12.3138 -10 17.7481		
35.6309 -10 35.9684		
-0.588998 -10 25.2528		
-8.88258 -10 -12.3485		
21.571 -10 -13.7038		
-24.6522 -10 -31.7095		
-49.1575 -10 49.4793		
-19.7323 -10 41.0642		
-49.5091 -10 11.9425		
-17.7143 -10 -3.80146		
-10.9608 -10 -4.82858		
-11.5538 -10 1.32855		
-48.8031 -10 -3.54414		
-33.8375 -10 19.6702		
31.4641 -10 -17.9655		
-9.59253 -10 -27.0013		
-38.7138 -10 -28.6959		
25.9934 -10 33.0115		
2.89448 -10 -6.99866		
-27.0801 -10 27.1671		
29.434 -10 -25.427		
33.7371 -10 -25.3868		
4.88889 -10 31.1913		
-3.20869 -10 -44.7082		
-10.3196 -10 -21.4501		
-34.9308 -10 -39.1753		
18.2335 -10 -29.8738		
-8.8708 -10 -43.0765		
44.3384 -10 -40.4162		
30.7281 -10 16.1106		
-49.8936 -10 -38.3541		
41.6987 -10 -8.68139		
38.7841 -10 25.3743		
-49.1833 -10 45.7997		
-38.2687 -10 -44.9322		
26.8937 -10 -31.9108		
-13.7036 -10 20.2116		
-23.0777 -10 -26.6791		
-21.9513 -10 4.03853		
-11.7124 -10 -3.9789		
15.0237 -10 19.5315		
-41.5491 -10 21.28		
-28.6344 -10 14.0972		
32.072 -10 48.1391		
8.35522 -10 -6.57244		
38.6262 -10 11.0239		
48.2577 -10 -34.1719		
-14.544 -10 -26.3632		
-30.419 -10 -6.15558		
-17.1117 -10 38.4001		
9.18099 -10 -29.0998		
1.83317 -10 -38.6176		
-19.5978 -10 26.7556		
0.647708 -10 -46.1539		
-49.4046 -10 11.3934		
-1.16004 -10 46.2697		
25.3094 -10 -44.2529		
25.773 -10 31.6796		
35.5649 -10 13.092		
38.4152 -10 46.7926		
-2.65426 -10 -47.0034		
30.0459 -10 -7.25477		
20.1969 -10 27.6118		
-43.8628 -10 -42.4102		
34.8276 -10 -41.6967		
35.541 -10 18.8608		
48.3389 -10 -38.4987		
33.3364 -10 15.1795		
-24.0277 -10 9.93955		
15.1009 -10 -7.74004		
-42.1197 -10 -2.76355		
5.27489 -10 -2.54187		
24.3161 -10 -26.0139		
-31.7977 -10 35.072		
-3.18128 -10 -24.7987		
-25.246 -10 -4.71021		
46.3381 -10 -23.065		
-39.9201 -10 18.0874		
29.6869 -10 -9.43693		
-30.0889 -10 21.6426		
-39.8191 -10 -41.4857		
-11.3137 -10 7.41457		
39.0154 -10 49.4716		
26.0513 -10 28.6263		
12.3857 -10 40.6132		
0.606553 -10 -24.3322		
10.5861 -10 17.465		
14.0279 -10 22.8193		
25.7624 -10 7.1908		
-47.6137 -10 -26.3195		
-14.5448 -10 27.5463		
-8.55237 -10 8.35829		
-6.62327 -10 29.4501		
29.4965 -10 26.4883		
7.52578 -10 25.2739		
-10.2428 -10 45.8445		
-0.512464 -10 -47.3459		
4.22463 -10 15.2408		
-7.32044 -10 -30.1379		
-6.52913 -10 -49.7698		
-38.732 -10 -18.975		
2.79392 -10 26.8179		
-24.6363 -10 27.7182		
6.37488 -10 25.7532		
-33.2473 -10 1.58958		
-39.4353 -10 -31.4581		
5.75468 -10 -42.5286		
-12.2566 -10 -28.3807		
29.2275 -10 -39.5954		
-44.2211 -10 49.2833		
-31.0431 -10 21.4525		
45.7653 -10 41.1157		
2.42272 -10 -15.9266		
32.4915 -10 19.5491		
20.101 -10 -16.6587		
-4.92595 -10 2.71433		
-11.9316 -10 -5.1847		
23.5911 -10 48.9677		
15.979 -10 20.4389		
36.4582 -10 3.51981		
-5.44535 -10 30.518		
-34.5252 -10 -17.9355		
4.95426 -10 0.191415		
-35.9979 -10 -33.1641		
14.6004 -10 -24.9732		
41.1936 -10 -39.8351		
46.196 -10 23.1073		
12.9598 -10 -9.92463		
-17.9048 -10 6.8264		
6.19662 -10 -15.621		
-9.78337 -10 33.204		
41.6456 -10 13.2876		
-46.0295 -10 49.5861		
28.5035 -10 -39.4816		
26.3362 -10 14.154		
-23.9782 -10 4.34353		
32.067 -10 24.8745		
39.2053 -10 45.2278		
4.0782 -10 -12.7707		
33.8396 -10 -27.0604		
-38.3303 -10 -1.49818		
-13.5167 -10 41.8038		
49.8072 -10 34.3968		
-15.1205 -10 26.303		
34.0642 -10 -20.3543		
44.287 -10 14.0459		
7.07046 -10 49.4072		
-15.2266 -10 -26.2492		
2.9326 -10 -44.2694		
19.2977 -10 -38.5993		
-36.5821 -10 40.3515		
48.2578 -10 -25.7978		
41.9532 -10 21.5742		
-19.5416 -10 -47.6197		
-27.5753 -10 -22.5477		
8.99818 -10 -49.9725		
18.0234 -10 2.60153		
-0.0494385 -10 -49.9298		
22.2664 -10 14.4702		
3.13687 -10 -2.51876		
20.8146 -10 -13.9307		
4.47892 -10 -3.72803		
19.9323 -10 -25.6963		
-7.42504 -10 41.1162		
-47.261 -10 -48.4477		
41.7534 -10 -29.1039		
13.7982 -10 46.7838		
-3.86213 -10 7.32062		
4.03688 -10 -40.261		
3.92591 -10 21.1408		
6.76687 -10 44.3613		
-44.7312 -10 -36.8105		
-14.7246 -10 -13.2722		
49.0412 -10 10.4169		
-11.7401 -10 -17.6293		
-38.0209 -10 9.98354		
3.10055 -10 16.0878		
-45.8914 -10 14.9255		
36.6237 -10 14.069		
-44.9452 -10 4.22053		
16.6234 -10 27.9346		
-16.3673 -10 3.90192		
-10.9345 -10 -14.9499		
-8.0857 -10 1.96394		
37.4363 -10 38.2534		
3.93573 -10 -28.6796		
-6.29525 -10 22.7091		
2.81169 -10 29.4215		
17.8193 -10 -24.9723		
15.7095 -10 1.34557		
5.20764 -10 46.7061		
40.7044 -10 14.4681		
27.4346 -10 21.3204		
-6.90365 -10 -35.3972		
39.1537 -10 -33.653		
-35.2878 -10 7.74314		
31.9557 -10 14.8296		
15.0978 -10 -28.4193		
-2.67128 -10 -37.6258		
11.3549 -10 -7.9681		
23.7566 -10 -2.63887		
8.11967 -10 -38.7029		
-23.0976 -10 37.326		
-33.8184 -10 34.2149		
-36.8371 -10 -18.361		
49.5619 -10 46.3342		
-36.7503 -10 -23.7565		
-10.812 -10 -21.2566		
-5.435 -10 -23.9129		
20.3124 -10 -20.9112		
-36.0492 -10 42.8603		
34.1283 -10 -5.51871		
-9.01183 -10 3.39679		
24.081 -10 11.5288		
-29.6572 -10 -8.24563		
35.316 -10 46.6327		
15.858 -10 28.7268		
-45.4268 -10 -37.4414		
-40.7347 -10 31.3014		
15.8506 -10 -1.3402		
28.0266 -10 44.2103		
-37.6799 -10 -42.8937		
31.4493 -10 44.1072		
2.85389 -10 -3.06318		
38.6392 -10 -21.6113		
4.23859 -10 -34.955		
-31.2139 -10 -25.1807		
25.1945 -10 24.8724		
-22.3173 -10 33.1918		
41.2922 -10 3.12051		
40.9091 -10 28.1347		
27.2883 -10 46.7218		
-49.649 -10 8.70757		
41.9729 -10 -23.2275		
-21.5695 -10 -35.6444		
-40.1829 -10 37.2531		
24.0745 -10 -17.2799		
7.27204 -10 -36.2498		
22.3212 -10 -47.5		
-36.787 -10 -49.1943		
-12.8298 -10 30.2096		
49.4299 -10 -25.6916		
-9.64865 -10 -8.14403		
2.23537 -10 1.61681		
-17.1955 -10 -36.4292		
28.1528 -10 -18.0526		
-21.083 -10 -42.9151		
-32.2964 -10 -27.2205		
-7.40892 -10 22.122		
-1.55596 -10 27.6523		
4.86998 -10 9.99008		
-9.82926 -10 -33.7323		
29.748 -10 -7.72301		
-13.9129 -10 -32.0315		
-43.7851 -10 -46.2111		
-43.0293 -10 -36.7848		
-48.6452 -10 6.23604		
-28.8573 -10 12.6195		
-17.7325 -10 -12.4991		
12.2313 -10 -24.4101		
13.5735 -10 15.7001		
42.0041 -10 -17.5731		
2.66889 -10 -45.9972		
-19.6116 -10 22.5096		
43.3376 -10 -24.163		
1.42472 -10 11.4336		
-15.134 -10 -22.8627		
-13.3862 -10 -28.8111		
41.9684 -10 -4.72496		
-30.7034 -10 6.86875		
-29.4348 -10 -31.2272		
31.8193 -10 40.592		
10.3251 -10 26.9849		
-33.0612 -10 0.480352		
-3.75472 -10 15.7578		
-15.8973 -10 -46.6466		
-39.7205 -10 37.9782		
29.3701 -10 -10.3606		
45.8954 -10 3.03301		
-22.4804 -10 -20.3893		
42.2364 -10 18.8498		
9.90144 -10 46.6722		
7.57353 -10 44.614		
-40.7815 -10 47.2411		
-11.249 -10 -8.80855		
-48.2561 -10 -40.5798		
-40.0674 -10 -20.4791		
-44.9161 -10 -38.7033		
-17.0982 -10 -10.2445		
-43.5556 -10 30.7284		
-11.4511 -10 -45.5087		
-14.775 -10 30.0577		
34.8057 -10 49.2807		
-34.2984 -10 -9.77624		
8.59106 -10 48.0745		
33.2997 -10 -7.7214		
28.8498 -10 -34.9881		
31.3546 -10 40.2749		
22.5769 -10 -10.4806		
-38.1301 -10 -26.0795		
26.7295 -10 22.6529		
45.3708 -10 25.5587		
-44.3316 -10 33.4957		
25.1703 -10 -14.5167		
-41.4481 -10 -7.83158		
-17.0551 -10 -23.1213		
12.702 -10 5.1721		
35.6429 -10 -39.6449		
-27.1386 -10 -15.5828		
29.7134 -10 -4.21776		
-27.7919 -10 6.55692		
-14.6516 -10 -16.1194		
-30.4277 -10 19.5353		
16.637 -10 11.6787		
-43.1596 -10 -44.886		
28.9435 -10 11.9302		
-2.41142 -10 45.9684		
-14.8448 -10 -33.3683		
-48.6279 -10 -41.0418		
-23.3154 -10 38.2077		
-35.1663 -10 34.7753		
-9.27604 -10 44.0203		
26.4425 -10 -27.857		
19.0135 -10 1.37394		
18.3299 -10 0.00451702		
49.4294 -10 -29.0578		
8.84718 -10 7.4698		
-45.2361 -10 -31.3368		
8.11514 -10 24.3004		
-25.6692 -10 36.4145		
-32.9969 -10 -33.392		
40.8748 -10 27.414		
24.0638 -10 -38.4655		
17.6491 -10 -45.948		
-29.1836 -10 -23.5593		
33.4138 -10 -10.0617		
-28.7639 -10 -19.676		
-0.262333 -10 17.5535		
15.0777 -10 11.4708		
40.3936 -10 -10.8817		
48.2097 -10 49.2875		
-2.66149 -10 -18.2364		
-15.5332 -10 -25.1287		
-42.3584 -10 -9.38652		
-22.837 -10 -23.3453		
25.4847 -10 -11.4646		
28.5394 -10 27.7379		
22.6155 -10 -1.6579		
33.2302 -10 -17.3715		
-36.4197 -10 -18.3803		
15.4538 -10 -26.6899		
44.5788 -10 29.6809		
31.7747 -10 25.787		
-23.7464 -10 44.7513		
42.8819 -10 27.047		
-26.3196 -10 -1.77267		
-22.4943 -10 44.7841		
-37.1107 -10 32.2686		
-21.39 -10 32.7014		
-42.9846 -10 -4.70929		
4.46877 -10 7.19077		
-10.8802 -10 -41.5726		
-36.7429 -10 13.1392		
-5.22689 -10 -31.8653		
-25.8936 -10 -41.1717		
-42.4023 -10 29.0591		
8.35851 -10 -10.4832		
-10.9769 -10 -39.3879		
16.5041 -10 29.9143		
-5.35006 -10 -5.51725		
24.7168 -10 -25.3984		
-36.8617 -10 -30.4825		
5.6234 -10 48.478		
-49.2253 -10 41.8607		
23.5743 -10 20.8269		
-19.9555 -10 13.1599		
39.4993 -10 44.8703		
-20.2061 -10 6.6154		
-15.0636 -10 9.55776		
-29.2658 -10 1.09022		
-40.9207 -10 46.8659		
-29.1186 -10 46.9733		
-22.0546 -10 -46.3031		
-23.7114 -10 -36.4126		
38.7448 -10 25.4037		
47.8893 -10 -44.1409		
36.7663 -10 -48.147		
-47.3659 -10 -23.4808		
31.2371 -10 24.4758		
21.3834 -10 31.9395		
-25.6889 -10 25.2477		
4.20477 -10 7.34277		
-17.3864 -10 23.9857		
0.301192 -10 10.8671		
38.4314 -10 32.6282		
20.229 -10 33.048		
48.0393 -10 -6.66399		
-16.2047 -10 31.8758		
0.254095 -10 7.97514		
-32.1566 -10 15.8761		
-39.7592 -10 -21.5483		
0.927093 -10 25.1335		
17.6311 -10 27.3147		
-10.5434 -10 23.0425		
11.1992 -10 -45.6964		
46.2993 -10 -49.8182		
0.335853 -10 2.51326		
-18.7041 -10 -12.568		
-38.6409 -10 9.7794		
22.6864 -10 9.61053		
17.1959 -10 33.2795		
-11.428 -10 -32.6939		
26.5865 -10 -36.3432		
6.53731 -10 8.32522		
16.2744 -10 -34.4783		
-25.745 -10 -44.0613		
-47.6637 -10 -16.7387		
-27.9287 -10 4.43489		
17.4127 -10 -8.7379		
-47.88 -10 25.8296		
-38.3035 -10 7.10587		
-35.8793 -10 13.7608		
-2.69422 -10 24.3969		
-34.0196 -10 20.3195		
-43.6817 -10 15.1104		
-37.9912 -10 -20.1583		
-27.3728 -10 -33.0632		
16.2446 -10 -40.3913		
-16.8411 -10 18.0892		
-2.91312 -10 38.7224		
-28.6705 -10 18.3144		
9.45217 -10 25.1268		
-28.395 -10 -20.139		
-38.2877 -10 27.3507		
-44.5063 -10 43.9324		
-15.6041 -10 21.7266		
-2.5083 -10 22.299		
-28.9265 -10 29.812		
14.9141 -10 -4.57302		
-47.5825 -10 14.0697		
-7.41968 -10 27.9039		
-30.1076 -10 49.891		
6.75804 -10 -7.3409		
44.2991 -10 -31.6812		
-7.60686 -10 12.6741		
-48.4935 -10 44.981		
34.9366 -10 18.678		
48.631 -10 -22.0157		
-21.5143 -10 -25.0042		
28.3947 -10 -4.21995		
-39.3926 -10 -34.0438		
38.5849 -10 -10.3852		
-47.4417 -10 -38.3786		
47.9426 -10 -33.671		
35.3347 -10 49.0181		
25.9773 -10 22.1352		
-7.69571 -10 26.467		
43.1702 -10 -27.5846		
21.3422 -10 -48.7226		
14.0661 -10 46.6942		
-30.773 -10 44.9006		
-10.8925 -10 20.039		
23.4966 -10 48.6423		
27.3485 -10 -48.3055		
-34.0296 -10 32.7305		
-31.6949 -10 -42.8526		
49.749 -10 -8.94719		
-49.3848 -10 3.02828		
14.2871 -10 13.8048		
19.1706 -10 -30.0189		
-2.1622 -10 46.7248		
13.1849 -10 18.879		
14.0841 -10 -43.9452		
-37.7747 -10 41.6154		
-5.0444 -10 -38.3045		
-11.3884 -10 22.4258		
21.0201 -10 -44.2011		
-48.9185 -10 -49.0276		
17.0803 -10 46.686		
1.966 -10 2.76572		
-43.9432 -10 16.625		
-45.8098 -10 -46.5551		
-2.56051 -10 8.34213		
-12.5634 -10 -34.6428		
4.87584 -10 -25.9383		
35.8744 -10 5.80515		
-0.50744 -10 -33.5345		
-36.042 -10 -46.5142		
35.6557 -10 45.3936		
-15.5243 -10 -37.4405		
8.53399 -10 39.8353		
-9.5686 -10 -7.6794		
26.8799 -10 -26.9289		
-0.373294 -10 -48.4471		
26.2821 -10 15.2138		
10.9241 -10 -16.161		
-9.19139 -10 -14.4705		
45.1894 -10 8.68478		
-11.6794 -10 -22.3753		
-5.11572 -10 29.1461		
-18.2549 -10 -5.80941		
-1.47905 -10 40.4362		
-23.5619 -10 -3.88169		
-14.0125 -10 27.8212		
-16.6071 -10 25.2498		
-13.1422 -10 -21.1518		
33.0052 -10 11.9988		
43.2177 -10 44.7208		
-23.805 -10 -18.5192		
-34.7773 -10 18.8028		
27.9993 -10 25.4113		
24.1401 -10 29.7202		
-46.1169 -10 12.6075		
-5.82038 -10 -31.7677		
43.3281 -10 -1.9918		
43.3889 -10 21.3591		
-21.9048 -10 -35.5312		
-11.3052 -10 17.5906		
-24.2677 -10 -32.098		
28.183 -10 1.2178		
13.969 -10 25.7899		
-4.33414 -10 1.27972		
20.4352 -10 -3.04972		
46.329 -10 39.3969		
-33.752 -10 -25.5192		
12.6582 -10 41.4625		
7.84879 -10 38.1706		
-11.6336 -10 -38.7223		
25.8021 -10 18.6951		
48.3751 -10 -2.00337		
-49.4127 -10 47.5203		
-21.1054 -10 -10.7501		
-42.418 -10 35.3127		
6.66837 -10 -12.5833		
-5.61637 -10 -22.4904		
-9.7331 -10 -15.0247		
-2.94378 -10 37.8232		
48.9246 -10 21.9927		
44.3195 -10 -25.3531		
37.4659 -10 1.02311		
14.8245 -10 34.1975		
43.8396 -10 -26.6859		
44.7258 -10 24.8976		
-18.7695 -10 -17.8669		
39.9665 -10 7.97403		
36.7521 -10 -24.8126		
-15.2247 -10 -22.4126		
-31.433 -10 12.7089		
22.4384 -10 -34.8949		
-12.9812 -10 5.62277		
9.0756 -10 41.5374		
-26.8694 -10 -42.151		
19.6976 -10 -23.3261		
34.4145 -10 10.5593		
-4.57125 -10 17.0898		
9.3809 -10 6.11286		
6.50918 -10 42.0813		
20.455 -10 -39.9652		
35.5737 -10 -7.2122		
28.716 -10 16.6365		
13.0922 -10 -35.2959		
44.6864 -10 38.4811		
13.91 -10 -14.6956		
-28.897 -10 -15.5139		
42.7414 -10 29.9522		
-4.06051 -10 23.351		
22.2205 -10 40.0796		
-16.3172 -10 33.6073		
-10.9213 -10 3.23771		
-25.5649 -10 19.6209		
-17.2253 -10 40.9943		
-47.304 -10 -5.45935		
36.1442 -10 1.1593		
-12.1173 -10 10.4299		
-33.5677 -10 27.2741		
-36.2345 -10 -43.5111		
-24.7526 -10 30.3761		
-40.796 -10 -44.3991		
-29.0182 -10 -37.128		
1.99696 -10 -28.7797		
-28.9911 -10 13.5934		
41.5818 -10 -24.8867		
-45.8493 -10 18.6019		
48.3321 -10 42.3926		
-40.8564 -10 -10.6207		
35.8057 -10 -13.6011		
-36.1635 -10 -27.0999		
-49.3496 -10 20.8886		
-20.2994 -10 -0.881922		
21.776 -10 -24.7492		
48.7407 -10 -43.2127		
-1.52681 -10 -16.8012		
40.6767 -10 8.5848		
-3.79463 -10 -9.45406		
42.2266 -10 -43.0414		
32.0873 -10 -25.6511		
11.3344 -10 -2.46257		
-14.1338 -10 -45.382		
-22.5518 -10 21.9705		
-40.1475 -10 -25.8611		
-22.2217 -10 -49.4148		
-36.384 -10 -49.6468		
-4.78241 -10 7.05623		
7.06021 -10 -36.9276		
0.645239 -10 48.4169		
-33.4592 -10 36.5161		
-17.0942 -10 -49.7496		
16.1132 -10 30.2166		
-15.4422 -10 10.5076		
-8.76801 -10 -36.5698		
12.8146 -10 1.56367		
-38.7356 -10 49.6314		
22.5009 -10 2.66839		
-7.43397 -10 9.72796		
-25.232 -10 -11.8129		
14.8414 -10 26.8717		
-0.949702 -10 -39.8999		
-19.8914 -10 12.9992		
-4.39525 -10 13.1888		
21.5127 -10 -23.6144		
-20.8762 -10 -17.9075		
28.5586 -10 28.0153		
14.7066 -10 -2.29147		
7.4401 -10 -6.35429		
4.55219 -10 -39.9052		
24.8931 -10 -4.68072		
32.5499 -10 -36.5875		
13.5643 -10 40.4742		
-26.3389 -10 39.6196		
16.6588 -10 -34.8669		
-48.4046 -10 7.67717		
-13.9624 -10 -32.013		
17.2463 -10 -6.22786		
-44.4379 -10 -7.98616		
9.40977 -10 -29.9449		
39.4984 -10 -19.7419		
25.5821 -10 -41.2326		
38.992 -10 42.8972		
22.8827 -10 -0.437343		
-8.28703 -10 -39.1932		
49.0976 -10 6.53419		
-2.77889 -10 -18.5544		
-7.75529 -10 -44.1428		
-32.1791 -10 26.2349		
-25.6787 -10 -48.4339		
31.976 -10 21.2109		
-5.16982 -10 -21.0892		
-28.1301 -10 -37.6076		
20.9565 -10 -29.2065		
34.7441 -10 -42.2453		
3.62833 -10 -47.3764		
21.187 -10 -0.426981		
-29.4253 -10 43.5423		
28.9118 -10 4.21394		
-16.4584 -10 34.5569		
-9.15184 -10 44.5593		
-32.1395 -10 -0.295851		
40.7167 -10 24.4468		
-48.8651 -10 25.9599		
-12.0622 -10 9.68993		
-47.771 -10 30.3923		
-32.9101 -10 -13.1055		
43.7129 -10 31.7947		
9.89571 -10 -44.3514		
47.7856 -10 -13.1921		
-2.41484 -10 -38.234		
-23.3998 -10 -18.3695		
26.9954 -10 -44.4364		
-39.9576 -10 32.9362		
32.2821 -10 30.7819		
6.43571 -10 -27.0564		
19.9404 -10 17.5343		
18.2756 -10 17.052		
-47.6361 -10 -1.81832		
-24.0119 -10 -39.72		
10.1352 -10 13.4703		
4.6448 -10 16.6344		
45.0694 -10 34.8758		
-39.5641 -10 -26.0916		
-43.7909 -10 -10.3014		
17.4308 -10 21.0213		
6.75069 -10 0.367448		
-32.2537 -10 -15.5231		
12.0162 -10 -31.8284		
9.70757 -10 27.4145		
34.2242 -10 -18.7463		
-43.2465 -10 47.7561		
33.1943 -10 28.8411		
-13.3982 -10 38.9131		
30.3964 -10 5.70668		
42.2696 -10 32.1447		
-41.3074 -10 -45.7873		
16.691 -10 16.1462		
-43.8699 -10 -26.9721		
-7.58219 -10 47.9219		
9.92557 -10 8.54617		
-34.3202 -10 -34.1423		
-6.92628 -10 46.1702		
41.2683 -10 11.0446		
9.82245 -10 -22.11		
11.3123 -10 4.12091		
-11.8466 -10 5.16543		
32.7443 -10 46.1215		
6.42134 -10 32.3358		
20.5001 -10 -5.40882		
-37.9257 -10 -10.6207		
-16.4966 -10 17.1979		
12.163 -10 41.9823		
-26.8927 -10 -34.4423		
3.12376 -10 -38.4835		
-39.8095 -10 40.5129		
-45.441 -10 13.2954		
-16.957 -10 -48.1529		
31.1519 -10 11.0005		
16.4893 -10 -35.3279		
-9.05731 -10 34.2492		
-28.3149 -10 47.5022		
29.8474 -10 19.8804		
-5.42505 -10 32.7639		
-21.8065 -10 -10.0871		
-21.3978 -10 -10.3757		
41.5951 -10 -1.67835		
11.8025 -10 24.49		
5.22499 -10 33.919		
-3.47932 -10 47.5058		
-0.026631 -10 -13.2195		
-36.3822 -10 28.8737		
46.5585 -10 46.9544		
7.53553 -10 -20.358		
-21.6318 -10 42.6551		
-40.8531 -10 40.2733		
-30.5244 -10 -25.058		
-11.9741 -10 -14.7986		
34.6599 -10 16.3272		
-33.3338 -10 -26.5889		
-27.2441 -10 44.769		
18.1362 -10 12.5256		
20.4936 -10 40.8137		
39.7923 -10 -3.47024		
44.835 -10 11.3861		
41.2486 -10 11.7803		
35.8532 -10 -3.12		
-41.575 -10 8.82587		
6.59018 -10 8.9474		
9.3825 -10 -40.5075		
-5.47774 -10 35.5108		
13.4387 -10 -30.6834		
19.1619 -10 27.2442		
31.06 -10 -44.7128		
-23.9273 -10 16.9074		
35.7839 -10 22.6749		
33.1941 -10 -45.718		
-35.9495 -10 -3.38805		
30.3676 -10 46.1251		
15.0702 -10 -5.946		
47.5002 -10 -27.524		
21.8452 -10 44.9389		
11.0524 -10 43.29		
26.7642 -10 30.3715		
-15.0988 -10 -25.576		
39.4292 -10 8.06755		
49.1984 -10 -15.0168		
-14.3242 -10 25.0527		
-40.8265 -10 35.7078		
-45.7391 -10 11.3349		
6.13386 34.2905 -10		
14.1715 -31.9885 -10		
2.67852 -49.925 -10		
41.067 -44.6396 -10		
2.27659 29.0038 -10		
-9.7518 -33.6044 -10		
-26.0353 -1.2773 -10		
-15.3876 -8.80138 -10		
-40.0112 -36.8181 -10		
-24.8061 31.9336 -10		
12.62 -22.6902 -10		
0.318349 -21.3271 -10		
10.0517 14.5546 -10		
25.6738 -37.4026 -10		
-6.21439 12.8609 -10		
10.1982 -48.4686 -10		
28.7056 -37.047 -10		
-18.6432 36.6714 -10		
4.21743 22.8085 -10		
5.9844 31.7333 -10		
-45.7161 5.00234 -10		
42.8989 33.7073 -10		
48.214 -23.3224 -10		
-19.7869 -6.24659 -10		
-14.8851 30.2865 -10		
6.17644 -0.596324 -10		
-3.45966 44.0767 -10		
-38.0822 -3.77065 -10		
34.8022 26.2081 -10		
7.24626 -4.96944 -10		
25.4477 -22.1817 -10		
-9.46935 -30.3608 -10		
-38.137 -44.059 -10		
-6.73351 -11.137 -10		
-16.2337 18.3088 -10		
-36.8985 -23.9822 -10		
-48.0025 -9.8807 -10		
-27.2807 -38.9676 -10		
41.3369 11.0437 -10		
-38.7174 20.3442 -10		
-42.4741 0.807323 -10		
19.3333 6.69495 -10		
14.4421 -27.5214 -10		
-48.1572 -1.53722 -10		
-20.4409 -3.31725 -10		
48.2051 29.5298 -10		
19.8351 -27.7632 -10		
-43.7997 -15.2443 -10		
-5.51695 -33.2535 -10		
-38.9338 -40.2314 -10		
-42.426 30.7083 -10		
-1.74425 18.412 -10		
-14.3754 -40.3487 -10		
-19.9304 38.7077 -10		
9.04033 6.23145 -10		
37.7089 -16.797 -10		
27.9984 19.1826 -10		
-26.6564 -18.8622 -10		
-43.7541 -29.6771 -10		
-1.37273 -22.9304 -10		
21.1842 4.9387 -10		
-24.6953 46.5546 -10		
28.0043 15.9557 -10		
-40.7495 47.9694 -10		
19.781 -25.3833 -10		
29.7852 40.5412 -10		
-11.5355 -29.0191 -10		
27.1388 35.2338 -10		
-12.9051 -41.41 -10		
-37.2132 -32.5557 -10		
41.5162 35.117 -10		
37.5438 11.3991 -10		
-45.7566 15.0534 -10		
-16.3442 48.8457 -10		
-23.2283 -6.89596 -10		
-12.5967 9.24764 -10		
37.1235 41.1271 -10		
23.7747 -15.8852 -10		
45.8364 26.1612 -10		
23.2922 37.25 -10		
-44.0585 23.982 -10		
27.3442 -31.3512 -10		
32.5286 9.36096 -10		
37.4165 -45.5612 -10		
44.9635 1.53981 -10		
15.5473 16.8249 -10		
41.6362 45.6753 -10		
-2.83749 6.58545 -10		
40.0155 5.26802 -10		
-42.6059 41.6195 -10		
31.1919 19.3049 -10		
41.3924 8.24885 -10		
-36.2895 48.4014 -10		
8.55225 -10.8765 -10		
45.5642 -30.3998 -10		
-16.0258 -44.6019 -10		
23.342 37.8355 -10		
-17.2572 -35.8256 -10		
21.7941 16.5997 -10		
-22.0585 -26.3298 -10		
-30.7313 -27.6308 -10		
-21.6641 -19.807 -10		
-9.81547 -13.1356 -10		
-42.8403 -16.0668 -10		
-17.847 -17.019 -10		
-3.16762 -38.1015 -10		
39.586 34.9922 -10		
-2.67597 -12.6919 -10		
38.3666 23.3603 -10		
42.2413 35.4076 -10		
16.3191 -24.5405 -10		
43.4758 28.9079 -10		
-28.2027 31.8378 -10		
-43.6406 -48.0653 -10		
31.8819 -21.0469 -10		
48.5069 -15.4663 -10		
-4.29433 35.4067 -10		
18.6927 -33.2146 -10		
32.4234 48.5449 -10		
-21.3025 -21.7363 -10		
39.6255 22.4504 -10		
29.8915 40.8413 -10		
38.2055 -26.7846 -10		
19.078 36.8993 -10		
0.237174 11.4438 -10		
19.0548 49.1939 -10		
28.2293 -3.02303 -10		
31.8067 2.55376 -10		
-27.5039 3.7111 -10		
-10.1386 43.7343 -10		
-8.40414 12.1626 -10		
-49.2905 -21.6151 -10		
43.7064 17.7038 -10		
-36.0151 29.0913 -10		
5.81801 -32.1856 -10		
-40.9404 -26.4381 -10		
33.5598 -42.4797 -10		
-16.1608 -30.1152 -10		
-29 -44.4683 -10		
22.9622 13.0649 -10		
39.6145 -19.4969 -10		
-23.4333 -12.583 -10		
48.0031 38.5442 -10		
29.2422 37.7775 -10		
33.9404 -22.6353 -10		
33.7593 47.3341 -10		
-26.3026 -19.4211 -10		
-37.8305 46.534 -10		
-42.4568 41.3485 -10		
-37.3896 34.4425 -10		
-12.63 -5.59263 -10		
10.8736 -43.3079 -10		
-13.624 -37.4073 -10		
12.2724 -43.2601 -10		
39.0432 0.775362 -10		
12.7836 21.0502 -10		
0.353821 6.45277 -10		
9.42124 24.6997 -10		
-32.5623 -23.6071 -10		
-29.1226 5.61013 -10		
-24.1141 -25.2772 -10		
-43.5353 10.5079 -10		
-43.8716 -15.2241 -10		
-41.7753 -21.5166 -10		
13.6139 26.5011 -10		
-12.719 35.3086 -10		
-26.249 -29.6498 -10		
-15.0156 -45.3542 -10		
38.2052 18.1194 -10		
-37.7687 -46.3211 -10		
-8.11895 -17.1868 -10		
-6.79294 -16.2749 -10		
-29.5298 -40.6341 -10		
-23.6111 -5.23929 -10		
26.8277 -16.4551 -10		
22.1658 15.4288 -10		
8.24785 2.78318 -10		
-16.3491 -41.0229 -10		
-42.0103 -23.3319 -10		
0.629404 -33.5302 -10		
31.2097 -36.3027 -10		
-15.4507 37.916 -10		
6.55615 -4.77351 -10		
-29.4266 31.376 -10		
0.892499 -48.6854 -10		
40.6804 30.4032 -10		
-49.2243 -46.8899 -10		
49.5019 -42.3596 -10		
-10.7638 44.23 -10		
23.6684 -29.0607 -10		
23.666 21.6163 -10		
-32.269 -40.6725 -10		
-31.8799 23.4227 -10		
-31.6975 41.8677 -10		
13.3851 23.9929 -10		
-31.7503 -43.2734 -10		
29.2483 -31.412 -10		
45.7205 -38.5513 -10		
-12.1711 -27.2456 -10		
-32.1216 -27.1121 -10		
-4.16053 -17.4692 -10		
-20.0809 -1.28451 -10		
47.8013 14.2473 -10		
16.9151 17.8719 -10		
-1.86218 -5.35791 -10		
-35.4751 14.3382 -10		
-16.7962 1.99493 -10		
1.1643 -1.5029 -10		
45.9267 12.9261 -10		
-8.75847 17.7136 -10		
-27.2082 -47.9432 -10		
-13.3077 31.5654 -10		
-12.2419 -39.5056 -10		
6.47621 -4.47478 -10		
37.7402 -2.95928 -10		
10.7812 -27.5126 -10		
48.1145 -2.35859 -10		
-36.3455 -47.6342 -10		
-18.6243 47.3778 -10		
36.1745 45.1733 -10		
43.3697 43.3759 -10		
27.0268 -38.957 -10		
33.315 -48.0281 -10		
-42.3202 36.1913 -10		
-26.0445 -45.1907 -10		
36.1434 -33.2539 -10		
-40.1978 2.59457 -10		
-10.7467 20.047 -10		
49.7165 34.9 -10		
1.49229 -13.1958 -10		
25.7574 -39.7224 -10		
-37.2922 36.9254 -10		
-39.5264 35.652 -10		
18.8486 -24.8029 -10		
45.0179 -44.5273 -10		
15.0218 -28.4241 -10		
-17.8401 -23.7142 -10		
-8.49304 -35.9032 -10		
41.2856 -4.78305 -10		
-1.46841 -12.8683 -10		
25.1564 -3.83534 -10		
10.1908 2.54238 -10		
36.3387 11.0268 -10		
39.7639 18.5082 -10		
23.3419 -31.7373 -10		
-5.50064 -6.22026 -10		
-3.04384 -33.318 -10		
-35.8142 -11.0145 -10		
-44.2777 26.8083 -10		
-19.5448 48.5928 -10		
-18.141 -18.26 -10		
8.9984 46.6368 -10		
48.9848 37.5824 -10		
-49.0914 16.9597 -10		
-29.7042 25.0737 -10		
43.427 -15.164 -10		
-30.7028 22.1532 -10		
-12.1145 45.0823 -10		
46.1688 29.1207 -10		
-23.1385 -40.4205 -10		
9.88839 38.8388 -10		
-10.4261 39.3295 -10		
-22.3827 18.4053 -10		
-30.3402 -24.9643 -10		
27.0394 -33.6734 -10		
-3.71869 28.9704 -10		
29.7435 -47.9698 -10		
24.6194 -43.6753 -10		
-33.1956 -46.2032 -10		
-40.7179 49.3449 -10		
20.0143 21.5071 -10		
-22.7021 30.2486 -10		
23.2709 -16.6795 -10		
-3.90013 -10.423 -10		
-17.403 -0.385731 -10		
-17.5382 48.1785 -10		
-9.48569 -22.5717 -10		
-15.6573 -4.95623 -10		
-7.88498 -23.2145 -10		
-3.71037 -14.3697 -10		
27.8958 -19.5407 -10		
-16.9602 29.3972 -10		
-45.6346 -1.36062 -10		
1.24672 2.84554 -10		
-22.8331 -17.6366 -10		
-4.28338 -48.2749 -10		
43.4649 -32.7808 -10		
-20.6676 -0.252687 -10		
-29.7802 -30.8996 -10		
-36.5681 -48.5423 -10		
-21.4195 -49.4094 -10		
-3.27176 24.9634 -10		
46.6117 -5.31987 -10		
-3.10119 -22.5447 -10		
9.46967 46.8994 -10		
-40.6577 -47.0025 -10		
-3.04896 -30.76 -10		
-31.6098 -32.9559 -10		
34.5009 -1.99047 -10		
41.6194 17.8659 -10		
-30.6768 37.8732 -10		
-41.4558 -25.3675 -10		
20.5943 -2.40583 -10		
15.7425 16.0166 -10		
-25.81 38.5061 -10		
9.6404 24.6198 -10		
-38.989 -13.0088 -10		
14.4731 41.9935 -10		
25.878 -45.2079 -10		
-27.2143 -23.6016 -10		
13.2677 38.6712 -10		
-33.3768 -41.2551 -10		
14.7194 -3.4391 -10		
34.2607 -18.171 -10		
-31.1208 -30.5932 -10		
-24.8978 40.5443 -10		
-0.309426 22.1159 -10		
-47.9538 37.582 -10		
44.2579 35.7361 -10		
-41.1473 -48.9934 -10		
-1.0336 -40.4269 -10		
-11.1188 38.4067 -10		
-43.3321 -32.8211 -10		
-39.8456 -48.8759 -10		
-19.5876 -26.2146 -10		
4.31034 -18.5526 -10		
3.64181 -1.63291 -10		
5.62475 15.6743 -10		
0.843238 34.3194 -10		
15.4198 -20.3939 -10		
-28.5035 10.828 -10		
24.9913 22.7278 -10		
-16.5059 -13.787 -10		
-29.2171 38.8213 -10		
47.7657 -7.97079 -10		
-7.43911 21.4608 -10		
14.9533 -43.385 -10		
-19.0727 29.1239 -10		
6.36533 -45.8194 -10		
-6.10317 29.7188 -10		
-33.643 -17.4468 -10		
-43.4528 48.9124 -10		
7.07789 -25.8781 -10		
28.0938 -34.6986 -10		
-27.1644 13.1262 -10		
37.1212 1.1698 -10		
1.77332 -3.52497 -10		
-9.78944 48.596 -10		
-28.9838 30.6285 -10		
38.5696 23.1961 -10		
-32.8402 -31.627 -10		
31.8364 -19.3862 -10		
-5.59667 20.8743 -10		
-18.9433 -48.6552 -10		
-48.1979 47.7341 -10		
-27.8522 -36.7637 -10		
25.8767 -27.488 -10		
-43.3613 27.6015 -10		
-1.45635 -2.38303 -10		
7.91764 9.98238 -10		
15.6935 -44.5094 -10		
-20.8817 -33.7994 -10		
-14.8196 -34.6504 -10		
23.1351 -46.3189 -10		
26.6613 -27.446 -10		
24.6606 7.48229 -10		
11.0828 -3.19265 -10		
-20.5218 3.26513 -10		
34.9352 -16.9806 -10		
-42.7873 4.48472 -10		
-34.495 -49.0905 -10		
-43.6408 32.6841 -10		
4.81554 -4.20312 -10		
1.72693 -3.21002 -10		
-2.85176 -40.7133 -10		
24.83 -23.4194 -10		
-35.9489 21.8877 -10		
10.1396 -31.0959 -10		
-45.339 33.5903 -10		
-33.5507 -45.4919 -10		
-49.1027 -16.6263 -10		
-26.6698 -5.09304 -10		
15.9533 45.4975 -10		
-4.77191 26.9591 -10		
45.6729 1.79343 -10		
-33.3707 44.2569 -10		
-12.6975 -29.3741 -10		
35.1824 18.0992 -10		
12.3566 -8.19214 -10		
-31.6446 12.8102 -10		
39.5608 11.8092 -10		
-21.4384 47.9298 -10		
-39.9777 0.957632 -10		
17.9715 -2.20217 -10		
11.6092 -15.66 -10		
11.3205 8.23746 -10		
31.3413 -32.3516 -10		
5.70158 -12.2012 -10		
12.4398 30.1003 -10		
-43.7123 -13.7825 -10		
-39.7273 8.54679 -10		
-15.3696 -21.1969 -10		
-35.0003 0.47071 -10		
-4.11868 30.9361 -10		
-16.185 -26.7929 -10		
48.3604 -9.07164 -10		
-41.4937 -0.383881 -10		
42.6328 27.5576 -10		
49.6738 3.28899 -10		
38.8104 -19.5349 -10		
36.7385 16.7436 -10		
-21.126 29.7872 -10		
-30.1499 25.5219 -10		
12.9945 -46.7412 -10		
-25.76 -17.2084 -10		
-36.4797 -21.0443 -10		
-30.8955 -36.6995 -10		
-26.7613 8.45075 -10		
2.67214 43.2289 -10		
10.9236 -15.2699 -10		
-7.37577 -47.7445 -10		
-17.4385 -44.6383 -10		
-3.3155 -27.2441 -10		
17.9047 -20.4651 -10		
29.5627 -23.8084 -10		
19.4506 -18.6159 -10		
-21.8882 38.5023 -10		
-1.63002 -20.6274 -10		
-15.9127 13.4862 -10		
-0.776604 -8.21749 -10		
16.9378 28.9534 -10		
10.9367 -43.9448 -10		
-35.3469 -19.6574 -10		
-28.3888 -12.7174 -10		
32.5633 39.8084 -10		
48.5347 -13.2148 -10		
-27.8669 -13.1106 -10		
-34.0249 -12.5331 -10		
-38.6924 -19.3546 -10		
3.78989 -24.4647 -10		
9.98137 -28.7611 -10		
-22.8521 -5.17929 -10		
-34.0875 0.382174 -10		
-25.933 31.7337 -10		
36.4695 39.2266 -10		
9.68661 -20.5933 -10		
4.61824 37.4975 -10		
-4.27373 -6.85111 -10		
-22 29.0702 -10		
2.6425 -47.134 -10		
10.4455 18.0958 -10		
7.84017 -49.7458 -10		
-48.1512 22.4632 -10		
6.13694 12.3803 -10		
-5.46197 -21.9158 -10		
-13.3424 11.7535 -10		
-38.5542 49.0942 -10		
-39.3362 -14.4687 -10		
-29.8781 -7.03471 -10		
16.5798 48.3061 -10		
-30.547 -33.3773 -10		
-31.1016 27.9988 -10		
-11.038 6.52699 -10		
49.4804 -0.734393 -10		
-5.029 -36.5785 -10		
-49.2448 -20.7762 -10		
-34.9671 -20.3435 -10		
-9.69629 -0.413237 -10		
16.3153 -18.869 -10		
-43.9752 21.127 -10		
-9.91974 45.187 -10		
-37.5101 -25.0245 -10		
-25.5622 1.55494 -10		
-43.4189 6.28316 -10		
-14.8448 -13.6111 -10		
37.4994 -48.7074 -10		
34.1259 33.8125 -10		
-6.90458 2.02386 -10		
27.6253 1.91519 -10		
-17.1492 -32.7465 -10		
24.9354 5.43978 -10		
-19.4581 5.23121 -10		
-26.4616 -4.63693 -10		
-32.9322 -10.501 -10		
36.116 -49.1844 -10		
-15.3873 17.3813 -10		
-11.4364 -33.645 -10		
13.6609 -34.4114 -10		
-10.4193 -6.65198 -10		
-14.3374 25.5274 -10		
-37.1264 34.6996 -10		
24.1653 -32.9701 -10		
2.11078 -2.0631 -10		
-1.34145 -47.7721 -10		
-47.9806 32.3313 -10		
47.9866 23.4853 -10		
10.677 30.7569 -10		
