1748
46.8259 -26.8061 6.80611		
13.04 -47.3415 27.3415		
-12.5732 5.81208 -25.8121		
-15.9958 21.0649 -41.0649		
44.3465 -18.7665 -1.23348		
19.407 3.23207 -23.2321		
-40.2558 45.4683 -65.4683		
33.7569 14.0677 -34.0677		
-32.5588 -1.31656 -18.6834		
43.6852 -38.9721 18.9721		
-42.5411 4.144 -24.144		
-31.8553 -9.98257 -10.0174		
-12.5812 40.1122 -60.1122		
-33.6847 -21.4232 1.42316		
30.7179 9.35855 -29.3586		
10.5096 -44.1675 24.1675		
30.2457 4.70954 -24.7095		
-5.91377 -9.02866 -10.9713		
-6.0286 9.02685 -29.0268		
39.8798 -0.150215 -19.8498		
2.3425 -34.009 14.009		
33.7222 -22.8613 2.86126		
32.3669 47.5289 -67.5289		
10.9113 42.588 -62.588		
-18.2442 -43.1636 23.1636		
27.5991 -17.0863 -2.9137		
-40.6783 -0.365332 -19.6347		
37.2697 9.69777 -29.6978		
-33.0347 11.399 -31.399		
36.8509 -20.2952 0.295226		
13.3042 -29.0249 9.02491		
35.3519 -16.3654 -3.63457		
-7.83025 -29.7543 9.75427		
-31.8432 49.7301 -69.7301		
31.4506 -34.5173 14.5173		
7.67742 -43.4698 23.4698		
5.1713 -7.28497 -12.715		
-34.365 -37.1982 17.1982		
37.5508 -36.775 16.775		
15.6266 -18.1841 -1.81593		
-20.883 49.9333 -69.9333		
30.9708 29.2932 -49.2932		
15.7443 18.0638 -38.0638		
29.7533 15.3291 -35.3291		
16.5989 40.2438 -60.2438		
45.8702 34.3764 -54.3764		
-31.4054 -40.3982 20.3982		
15.5704 27.45 -47.45		
-16.8153 27.9031 -47.9031		
-15.5029 -8.70793 -11.2921		
23.5393 19.8022 -39.8022		
3.10825 -40.9728 20.9728		
6.23551 46.5959 -66.5959		
-16.1646 -19.7171 -0.282858		
38.2573 2.72818 -22.7282		
-12.9689 -49.4542 29.4542		
7.45167 43.8235 -63.8235		
-42.6173 18.1812 -38.1812		
-46.1925 3.56264 -23.5626		
-40.5259 -31.9151 11.9151		
-31.728 -28.7293 8.72932		
39.5815 16.6579 -36.6579		
-19.0268 3.04536 -23.0454		
-45.5691 14.1892 -34.1892		
-35.3095 -31.9506 11.9506		
17.7475 -46.6737 26.6737		
32.287 -30.0189 10.0189		
8.95832 49.9063 -69.9063		
-48.3354 22.6824 -42.6824		
-18.6176 -32.8348 12.8348		
-26.4552 -38.225 18.225		
-23.9842 -29.6137 9.61374		
-16.1392 -20.9677 0.967747		
3.99462 24.7875 -44.7875		
-39.984 -20.2246 0.224612		
-33.4262 -5.71978 -14.2802		
44.2851 -12.9701 -7.02992		
-7.70399 7.73886 -27.7389		
-47.8586 46.4478 -66.4478		
-0.195929 -43.9355 23.9355		
-4.67481 7.46367 -27.4637		
38.862 -28.004 8.00404		
9.75774 -2.06427 -17.9357		
-48.6615 -42.2562 22.2562		
14.5372 -31.4779 11.4779		
-30.3809 35.4619 -55.4619		
-36.3671 -12.3154 -7.68458		
14.1201 18.3727 -38.3727		
-47.1694 0.21452 -20.2145		
11.2044 36.0018 -56.0018		
6.67497 27.6401 -47.6401		
-18.9413 -22.7527 2.75275		
-27.1662 11.0603 -31.0603		
-12.2783 21.6904 -41.6904		
19.9553 49.171 -69.171		
-20.1741 -41.4145 21.4145		
26.0843 -14.7045 -5.29554		
-26.1416 1.70712 -21.7071		
34.5908 16.0211 -36.0211		
-5.35485 -26.9767 6.97674		
12.6251 20.2254 -40.2254		
-13.7235 -18.7551 -1.24494		
-20.4053 12.3505 -32.3505		
-33.0435 -25.5165 5.51652		
24.6879 18.9302 -38.9302		
-35.8236 30.3041 -50.3041		
2.28287 -29.0839 9.08392		
11.3735 -13.6971 -6.30288		
-43.0217 -40.2387 20.2387		
-35.6217 -47.7982 27.7982		
23.0079 -47.4858 27.4858		
31.2419 35.7188 -55.7188		
32.2473 39.2419 -59.2419		
32.8903 -43.8978 23.8978		
1.2567 -37.5935 17.5935		
45.0257 49.0284 -69.0284		
48.7486 23.7385 -43.7385		
-26.8019 -30.6724 10.6724		
16.8179 -34.2043 14.2043		
14.8451 -13.0466 -6.95337		
-31.1608 -36.3076 16.3076		
39.754 19.5548 -39.5548		
-0.465216 -31.4408 11.4408		
10.5352 -0.398001 -19.602		
-38.2558 17.2023 -37.2023		
15.9546 -7.86119 -12.1388		
26.5347 -26.3602 6.36022		
17.0026 -23.3088 3.30884		
49.083 -7.32836 -12.6716		
-33.0749 -21.1768 1.17679		
9.75037 -35.2593 15.2593		
-17.7982 -19.7063 -0.293673		
11.3105 30.987 -50.987		
-39.1379 8.38973 -28.3897		
-4.32513 25.4733 -45.4733		
-29.5507 34.3813 -54.3813		
38.7935 -32.2606 12.2606		
-25.0222 4.36945 -24.3694		
20.2813 -18.5732 -1.4268		
0.304043 32.591 -52.591		
11.0789 13.1833 -33.1833		
-41.5202 49.0798 -69.0798		
7.30258 29.9678 -49.9678		
-3.50117 -42.9075 22.9075		
-18.3047 -44.1889 24.1889		
27.8896 -36.919 16.919		
-9.43956 -13.2053 -6.7947		
-27.5532 -16.0994 -3.90063		
36.2698 -30.2545 10.2545		
46.6633 2.87456 -22.8746		
-45.7213 8.20467 -28.2047		
-30.5424 -13.7573 -6.24268		
-16.8915 -27.7731 7.77314		
-28.2261 -19.8443 -0.155728		
11.9466 -2.86813 -17.1319		
14.739 37.2853 -57.2853		
47.6852 -4.38171 -15.6183		
-46.8547 -7.84108 -12.1589		
-21.8515 -42.2285 22.2285		
-9.30928 45.0085 -65.0085		
-35.7538 -21.4914 1.49136		
-43.6554 39.6018 -59.6018		
32.0575 39.557 -59.557		
32.7897 -4.03464 -15.9654		
-2.90863 -5.7749 -14.2251		
2.99236 -32.0804 12.0804		
3.55935 3.00261 -23.0026		
12.4126 -47.6733 27.6733		
26.9977 4.07013 -24.0701		
-10.4933 39.1249 -59.1249		
-6.04105 46.7301 -66.7301		
-0.00865942 29.8686 -49.8686		
15.0793 -4.081 -15.919		
15.6684 -2.35827 -17.6417		
-40.8842 48.7612 -68.7612		
21.6897 44.9141 -64.9141		
-44.9068 8.97958 -28.9796		
49.4659 -41.2016 21.2016		
5.67304 -5.23476 -14.7652		
-46.6361 -47.7237 27.7237		
-27.2574 28.4238 -48.4238		
-19.6539 -5.99492 -14.0051		
-17.4396 36.955 -56.955		
30.4724 15.3211 -35.3211		
23.9846 -3.85694 -16.1431		
-9.57357 -21.4219 1.42193		
48.7931 -32.5245 12.5245		
29.3778 34.2649 -54.2649		
-14.3765 -34.1152 14.1152		
11.8225 -3.46023 -16.5398		
38.6615 -9.25693 -10.7431		
14.7588 -38.2564 18.2564		
19.6418 42.078 -62.078		
24.7475 5.54351 -25.5435		
-45.455 37.8968 -57.8968		
19.2073 10.2243 -30.2243		
-7.50151 32.0113 -52.0113		
-23.0659 -14.2796 -5.72043		
34.0363 38.6303 -58.6303		
-12.7217 -9.66658 -10.3334		
23.4677 -16.5324 -3.46755		
31.1595 -27.4666 7.46656		
-26.8097 -19.658 -0.342043		
-19.3301 0.655441 -20.6554		
49.2787 -30.1238 10.1238		
-20.9829 33.6471 -53.6471		
17.3154 -34.7662 14.7662		
-19.0422 45.0037 -65.0037		
-27.6212 -42.1335 22.1335		
-27.1829 25.1085 -45.1085		
42.2304 -32.0149 12.0149		
44.7223 48.0117 -68.0117		
16.9386 -25.3034 5.30342		
33.9878 -10.6935 -9.30652		
-22.8272 13.8368 -33.8368		
23.687 12.9424 -32.9424		
28.5099 48.6676 -68.6676		
29.4355 -48.1892 28.1892		
34.0678 43.5342 -63.5342		
19.8434 -32.4584 12.4584		
-34.5232 22.7724 -42.7724		
18.6289 0.270223 -20.2702		
-1.80985 -9.6473 -10.3527		
-1.32993 47.0284 -67.0284		
27.7184 -1.37651 -18.6235		
-49.0751 1.64742 -21.6474		
-41.3869 10.4584 -30.4584		
7.9987 37.456 -57.456		
48.6726 21.9099 -41.9099		
7.13479 -13.2408 -6.75918		
-35.5758 -29.3416 9.34159		
18.4592 -14.5771 -5.42288		
28.4726 -45.9555 25.9555		
28.778 -20.5816 0.581626		
4.16104 14.892 -34.892		
30.6641 3.37718 -23.3772		
27.7353 -11.6395 -8.36052		
-38.5016 13.6113 -33.6113		
44.3921 -37.4911 17.4911		
-0.591884 46.1183 -66.1183		
-1.34515 31.886 -51.886		
-6.73882 14.0122 -34.0122		
-3.73479 14.5499 -34.5499		
39.8344 41.5099 -61.5099		
38.8691 4.53389 -24.5339		
-43.5979 -23.7709 3.77087		
-49.6993 7.72759 -27.7276		
19.1279 43.3406 -63.3406		
22.4766 -1.37603 -18.624		
37.8528 37.5671 -57.5671		
-5.95362 -36.5522 16.5522		
35.9762 9.63027 -29.6303		
43.3402 -7.16275 -12.8372		
-33.7869 25.9995 -45.9995		
-9.31372 -46.7241 26.7241		
-39.9518 -28.7085 8.70851		
-26.0495 -17.9767 -2.02326		
-14.7 -26.2602 6.26017		
23.6261 -10.8591 -9.14093		
16.2513 4.34912 -24.3491		
32.7532 -14.1319 -5.86808		
-6.09755 29.9702 -49.9702		
-3.21467 49.7098 -69.7098		
16.7111 -23.7597 3.75971		
-33.9219 32.6157 -52.6157		
-5.94113 43.2246 -63.2246		
-13.3039 -14.7311 -5.26885		
-43.9391 -5.74739 -14.2526		
-30.3919 6.35567 -26.3557		
41.9141 20.2461 -40.2461		
-48.824 -19.1632 -0.836804		
-37.4992 -32.702 12.702		
23.5992 -38.8013 18.8013		
36.0646 13.9301 -33.9301		
-9.11212 18.2008 -38.2008		
38.3726 -45.7919 25.7919		
41.6937 24.8046 -44.8046		
20.1078 -35.7601 15.7601		
-11.2922 6.46752 -26.4675		
-12.9117 23.284 -43.284		
28.7728 6.96386 -26.9639		
-38.5871 -39.5477 19.5477		
9.97578 17.9376 -37.9376		
32.6944 -47.4601 27.4601		
9.62416 33.7979 -53.7979		
3.81997 35.0333 -55.0333		
21.2887 31.739 -51.739		
48.8359 -2.8779 -17.1221		
31.0228 -10.1629 -9.83715		
-16.7134 41.4913 -61.4913		
5.17121 -25.4595 5.45946		
44.6389 -47.3253 27.3253		
-41.8902 -19.0298 -0.970193		
-24.9318 43.4525 -63.4525		
4.41879 27.2321 -47.2321		
9.57617 -14.3494 -5.65065		
-24.5943 -8.44837 -11.5516		
-15.4174 19.8295 -39.8295		
-46.1733 -48.237 28.237		
21.1403 16.3823 -36.3823		
4.6055 11.1552 -31.1552		
1.78629 -49.8176 29.8176		
-11.8853 5.72708 -25.7271		
-10.846 14.7191 -34.7191		
-11.585 -36.6113 16.6113		
23.4843 -35.6014 15.6014		
1.51975 38.0076 -58.0076		
36.8688 -7.28422 -12.7158		
-45.0595 49.6382 -69.6382		
19.6469 43.9338 -63.9338		
-39.0077 46.5522 -66.5522		
-19.0758 -5.50686 -14.4931		
-32.6858 43.9788 -63.9788		
-30.9841 42.5466 -62.5466		
33.1194 20.4662 -40.4662		
-25.4735 -37.3976 17.3976		
7.7534 29.7238 -49.7238		
16.3983 14.8217 -34.8217		
-47.5959 -19.8244 -0.175583		
-37.6879 -28.9233 8.92334		
33.7746 -43.5545 23.5545		
-38.2492 47.5909 -67.5909		
-2.69255 13.3621 -33.3621		
4.17434 -3.11588 -16.8841		
-18.5269 -20.2531 0.253097		
21.1504 -9.47961 -10.5204		
-20.5181 24.9803 -44.9803		
-32.9644 -3.39036 -16.6096		
-44.6029 -32.1986 12.1986		
-2.86538 -23.7099 3.70985		
-3.55353 48.8193 -68.8193		
-10.6202 -43.2792 23.2792		
-39.6188 -13.4706 -6.52935		
18.5563 -26.8091 6.80909		
31.2653 -17.1694 -2.83062		
-20.9188 7.02248 -27.0225		
24.5614 21.8053 -41.8053		
-33.4104 -20.3317 0.331721		
36.4651 -45.1392 25.1392		
37.5622 -20.2529 0.252906		
38.4897 -8.79054 -11.2095		
30.8523 -8.3723 -11.6277		
-2.34638 5.38055 -25.3805		
26.5052 -8.0894 -11.9106		
-47.3788 -25.0767 5.07669		
4.58127 34.7385 -54.7385		
-22.5143 -1.89659 -18.1034		
-21.5941 11.5058 -31.5058		
-25.7396 16.4002 -36.4002		
-16.0765 35.1517 -55.1517		
26.4435 7.57924 -27.5792		
18.5048 -36.7426 16.7426		
-48.3753 1.91875 -21.9188		
20.779 6.16224 -26.1622		
-13.1259 5.06496 -25.065		
42.4243 -37.188 17.188		
11.8955 -16.9587 -3.04131		
27.3996 -34.753 14.753		
0.2747 -31.7457 11.7457		
-17.9539 -18.233 -1.76702		
-8.15128 32.5664 -52.5664		
27.3327 44.4816 -64.4816		
4.15624 -27.1756 7.17562		
-34.849 -15.7583 -4.24169		
19.1346 5.40467 -25.4047		
25.7729 4.10508 -24.1051		
39.8117 11.9913 -31.9913		
-21.3745 27.0764 -47.0764		
34.0726 -41.8006 21.8006		
-6.28 -32.8004 12.8004		
-3.89394 -18.3793 -1.62067		
-33.0534 22.4802 -42.4802		
-13.1444 44.1024 -64.1024		
-15.9123 -3.13006 -16.8699		
-44.1759 -16.7702 -3.22983		
13.9267 -40.1083 20.1083		
-19.1995 -3.54922 -16.4508		
46.27 25.7226 -45.7226		
45.627 21.6689 -41.6689		
-31.9568 -14.9743 -5.02568		
15.169 16.4173 -36.4173		
35.779 26.4123 -46.4123		
-34.0612 -45.6563 25.6563		
19.259 10.6673 -30.6673		
-24.9499 -2.34464 -17.6554		
-6.05456 -25.0426 5.04264		
-2.74072 -10.439 -9.56096		
-46.6977 35.4156 -55.4156		
2.53957 -28.913 8.91304		
15.4172 26.6887 -46.6887		
48.432 -25.4396 5.43964		
-28.4879 -36.7796 16.7796		
-43.4547 30.0108 -50.0108		
-30.7988 -36.5381 16.5381		
-23.0659 11.002 -31.002		
7.50645 39.3858 -59.3858		
-46.42 -1.6535 -18.3465		
-5.8274 -26.9995 6.99954		
-24.7109 -49.6441 29.6441		
0.0526682 -43.433 23.433		
37.4536 20.7584 -40.7584		
-1.12009 -47.9629 27.9629		
-4.68281 -4.2823 -15.7177		
37.152 -3.96187 -16.0381		
-22.2256 -24.8025 4.80254		
35.8215 -21.1935 1.19345		
33.0078 -3.94641 -16.0536		
35.1905 28.7316 -48.7316		
20.3239 -10.5764 -9.42357		
-16.7193 -33.3005 13.3005		
46.0278 -32.2607 12.2607		
-40.6943 -2.55467 -17.4453		
-2.56432 27.011 -47.011		
-11.2788 11.5171 -31.5171		
-29.2688 32.7133 -52.7133		
-32.2712 -36.3229 16.3229		
7.87916 19.0903 -39.0903		
32.717 -46.3512 26.3512		
-46.1924 -48.6019 28.6019		
-46.4337 -18.2899 -1.71008		
-17.1912 10.2145 -30.2145		
-15.0572 -33.9183 13.9183		
39.7005 -15.5179 -4.48207		
-9.32623 -38.5599 18.5599		
-36.6302 49.4426 -69.4426		
35.5419 24.3076 -44.3076		
13.4879 -29.6917 9.69173		
29.4032 16.6291 -36.6291		
40.4358 -42.0276 22.0276		
1.5485 31.595 -51.595		
-4.033 20.7225 -40.7225		
33.6592 -42.382 22.382		
-21.7794 -33.7713 13.7713		
5.91627 30.183 -50.183		
31.6668 7.6772 -27.6772		
41.6933 18.5542 -38.5542		
28.626 24.0127 -44.0127		
2.85563 48.2645 -68.2645		
-9.86742 -14.2544 -5.74558		
-41.7203 16.4758 -36.4758		
-13.9824 -25.4873 5.48731		
3.91754 16.0888 -36.0888		
-32.349 -36.864 16.864		
-26.2175 16.7487 -36.7487		
-2.17193 -19.0421 -0.957876		
47.9567 -35.997 15.997		
46.3567 -16.075 -3.92503		
8.60138 14.8429 -34.8429		
29.2534 9.55784 -29.5578		
-35.522 15.9103 -35.9103		
40.8757 34.3028 -54.3028		
44.2016 -1.73811 -18.2619		
32.9062 -31.8737 11.8737		
46.4129 23.6075 -43.6075		
28.197 -48.2491 28.2491		
41.0635 -48.4586 28.4586		
17.7367 5.95506 -25.9551		
-32.7598 -31.8784 11.8784		
5.63099 -44.0463 24.0463		
-30.9731 42.0264 -62.0264		
22.5653 0.731243 -20.7312		
38.7384 22.5711 -42.5711		
-31.5467 33.0801 -53.0801		
44.0567 16.6448 -36.6448		
25.9114 25.6353 -45.6353		
4.68514 24.448 -44.448		
-42.1012 -17.0575 -2.94251		
-15.9535 27.6412 -47.6412		
13.0196 -20.9338 0.933757		
23.3805 -38.9181 18.9181		
-49.1597 41.0755 -61.0755		
-36.0964 -13.9482 -6.05184		
35.2339 16.5119 -36.5119		
-0.926244 -36.976 16.976		
34.6392 -39.8854 19.8854		
37.8305 -25.6475 5.64749		
-30.6861 42.9962 -62.9962		
-26.607 -22.5469 2.54693		
-0.410647 34.7232 -54.7232		
-39.9152 -17.8134 -2.18655		
9.774 -0.278204 -19.7218		
-45.4185 -19.7737 -0.226346		
-8.78903 -2.09197 -17.908		
31.5538 35.8255 -55.8255		
38.416 -15.4409 -4.55912		
6.79238 20.5382 -40.5382		
6.54778 -30.2773 10.2773		
35.1656 -46.6533 26.6533		
7.98138 -41.6425 21.6425		
-30.246 19.8805 -39.8805		
16.0684 -5.69725 -14.3028		
31.7021 32.3132 -52.3132		
-48.5143 -44.0708 24.0708		
2.60435 27.0267 -47.0267		
5.94405 29.6192 -49.6192		
-20.2368 35.9682 -55.9682		
23.3223 -27.7701 7.77014		
-14.41 20.8455 -40.8455		
-40.5587 -27.908 7.90795		
32.4975 9.78764 -29.7876		
47.3924 12.3837 -32.3837		
41.7816 -36.8839 16.8839		
-6.74756 -42.5041 22.5041		
-44.8956 29.396 -49.396		
-46.4206 -46.5989 26.5989		
3.75614 -6.80717 -13.1928		
25.8438 5.13832 -25.1383		
28.7134 12.912 -32.912		
10.475 23.6645 -43.6645		
-9.29699 24.8571 -44.8571		
43.4618 -24.2152 4.2152		
-44.852 -16.501 -3.49901		
-38.3235 -13.3361 -6.66392		
-10.2794 4.14054 -24.1405		
-43.9982 36.7908 -56.7908		
46.4256 4.09458 -24.0946		
36.0687 45.5274 -65.5274		
-30.7282 -48.6901 28.6901		
25.9965 -37.3096 17.3096		
48.4612 47.6213 -67.6213		
-41.0264 -16.2028 -3.79719		
24.401 -35.2459 15.2459		
42.194 10.5029 -30.5029		
24.9934 -28.6595 8.65948		
-17.7226 30.3639 -50.3639		
-45.0939 -23.627 3.62695		
42.7184 -2.79492 -17.2051		
17.4851 26.806 -46.806		
-2.12603 5.58312 -25.5831		
-46.895 -20.1904 0.190401		
8.56371 39.0071 -59.0071		
-22.0281 -5.5671 -14.4329		
47.1199 -1.01243 -18.9876		
23.3562 47.8813 -67.8813		
-46.0176 -18.7982 -1.20181		
-29.2658 -38.0583 18.0583		
35.7433 17.0883 -37.0883		
7.85015 -37.1005 17.1005		
-25.4439 -19.4227 -0.577272		
-8.34291 2.77177 -22.7718		
10.6911 -0.100707 -19.8993		
-2.55903 -6.87821 -13.1218		
-29.1935 12.4473 -32.4473		
31.2696 1.54952 -21.5495		
38.1867 48.833 -68.833		
35.2079 -30.2078 10.2078		
22.8 -48.9708 28.9708		
15.0185 -40.3073 20.3073		
8.53266 -47.7784 27.7784		
-15.1057 19.3824 -39.3824		
-40.0268 46.8974 -66.8974		
-0.131213 30.6322 -50.6322		
31.2495 10.7183 -30.7183		
49.0723 12.718 -32.718		
31.1321 12.3117 -32.3117		
-16.7725 25.4896 -45.4896		
21.4439 5.05875 -25.0587		
-29.8277 5.41303 -25.413		
-2.31132 -27.5475 7.54753		
6.20223 -24.8916 4.89158		
29.5818 -42.2436 22.2436		
37.5104 34.1088 -54.1088		
39.2112 -35.4797 15.4797		
-30.2161 -49.3941 29.3941		
9.24616 29.0424 -49.0424		
-7.68899 40.3642 -60.3642		
44.2791 25.7047 -45.7047		
-6.72337 -41.2563 21.2563		
-24.6771 -18.9783 -1.0217		
43.5071 42.8145 -62.8145		
36.2267 17.7919 -37.7919		
3.85761 26.6818 -46.6818		
-10.3633 23.9964 -43.9964		
-20.5803 26.353 -46.353		
46.1863 46.3575 -66.3575		
7.84331 -37.9816 17.9816		
-43.9811 -16.1148 -3.88523		
42.1546 -27.7122 7.71223		
0.683647 43.0283 -63.0283		
-20.198 -47.0445 27.0445		
-40.6092 41.939 -61.939		
1.78105 -20.6206 0.620551		
-7.85566 -33.8559 13.8559		
19.1932 0.872954 -20.873		
31.4235 19.4535 -39.4535		
-18.0225 -8.7101 -11.2899		
31.4518 32.7164 -52.7164		
45.4183 -45.6982 25.6982		
46.7358 14.8544 -34.8544		
8.13789 45.7204 -65.7204		
4.66375 -3.46811 -16.5319		
-30.6357 -40.9243 20.9243		
9.30366 -19.1088 -0.891246		
39.926 30.1716 -50.1716		
-1.04963 -28.1581 8.15809		
-13.3922 40.2377 -60.2377		
20.046 -43.0959 23.0959		
-43.5829 -19.2769 -0.723126		
-0.186058 46.7127 -66.7127		
44.2818 -8.12087 -11.8791		
-15.3239 -34.1187 14.1187		
5.77938 -28.6365 8.63646		
47.9169 46.9744 -66.9744		
-36.975 -48.8122 28.8122		
34.609 -17.5393 -2.46073		
-0.636748 6.38186 -26.3819		
-6.95545 -9.87995 -10.1201		
-6.75022 -7.74009 -12.2599		
6.48195 29.9891 -49.9891		
45.0073 -47.9388 27.9388		
-43.3469 0.788805 -20.7888		
21.8811 -3.77619 -16.2238		
-26.041 -1.28477 -18.7152		
-13.2037 27.3029 -47.3029		
-32.2742 -26.0555 6.05551		
18.2831 47.6915 -67.6915		
-27.231 -30.6308 10.6308		
42.9664 16.3414 -36.3414		
-1.29093 18.4014 -38.4014		
-36.5181 33.4152 -53.4152		
-40.0156 -9.54114 -10.4589		
12.299 -6.39987 -13.6001		
22.4603 -46.3772 26.3772		
25.9067 18.4746 -38.4746		
26.1754 -2.35387 -17.6461		
-11.0103 -48.1284 28.1284		
18.3046 -4.27216 -15.7278		
49.5002 -48.5265 28.5265		
13.6465 -18.4065 -1.59355		
-22.6793 -7.82836 -12.1716		
-43.5541 -34.1698 14.1698		
33.0959 -11.1802 -8.81977		
-10.3233 19.7195 -39.7195		
-47.6837 0.873071 -20.8731		
21.1008 48.9066 -68.9066		
-3.05855 -49.4391 29.4391		
-47.5699 2.34253 -22.3425		
16.1036 3.1103 -23.1103		
-22.5591 -21.1125 1.11247		
-49.2659 -0.806714 -19.1933		
-41.5988 -0.592363 -19.4076		
27.9654 18.344 -38.344		
13.4037 2.03516 -22.0352		
47.6759 -42.8898 22.8898		
22.5621 13.4853 -33.4853		
16.2272 24.7856 -44.7856		
-27.9735 -27.9692 7.96919		
3.0526 40.729 -60.729		
32.0106 36.246 -56.246		
-21.3762 5.34077 -25.3408		
-25.9713 21.6913 -41.6913		
2.04745 14.2143 -34.2143		
33.3313 29.9873 -49.9873		
24.0882 18.4881 -38.4881		
-23.7548 47.0503 -67.0503		
-11.1475 39.7111 -59.7111		
46.9557 15.6353 -35.6353		
22.2943 -35.5648 15.5648		
-42.6497 10.9586 -30.9586		
-1.31669 -23.3506 3.35064		
27.6797 -9.3296 -10.6704		
40.6949 -31.9793 11.9793		
-29.0806 -17.75 -2.25005		
44.8763 38.4602 -58.4602		
34.4333 -21.3051 1.30507		
41.037 17.3214 -37.3214		
11.6848 5.68768 -25.6877		
24.5969 -42.144 22.144		
-0.0137025 -11.2232 -8.77677		
-19.9845 -10.173 -9.82699		
-21.3289 -32.952 12.952		
31.748 36.2614 -56.2614		
21.5659 -25.6727 5.67272		
-39.6549 29.182 -49.182		
15.2716 -27.1699 7.16993		
28.7032 -29.2535 9.25354		
24.8139 16.3393 -36.3393		
28.897 -21.498 1.49803		
-0.923972 -27.3396 7.33959		
14.2031 -43.8888 23.8888		
40.7406 23.439 -43.439		
36.7427 -17.4467 -2.55326		
34.0967 -49.2397 29.2397		
43.1822 34.9777 -54.9777		
34.5283 16.1642 -36.1642		
-42.5548 -29.2248 9.22484		
-9.22636 45.0249 -65.0249		
36.8219 -13.7921 -6.20786		
-23.4621 -32.7376 12.7376		
17.5754 49.8166 -69.8166		
-14.6545 -42.6731 22.6731		
19.7464 35.0289 -55.0289		
23.5094 34.1501 -54.1501		
10.3513 33.7021 -53.7021		
5.73327 21.2846 -41.2846		
-34.8183 48.7891 -68.7891		
-47.3018 -7.51601 -12.484		
18.6681 5.83695 -25.837		
16.9561 10.3519 -30.3519		
18.5781 5.13326 -25.1333		
-29.3548 -20.7714 0.771356		
18.9155 -41.4842 21.4842		
-47.6114 -34.0254 14.0254		
17.481 -16.8158 -3.18422		
14.3548 42.5884 -62.5884		
-23.8433 -5.8513 -14.1487		
8.55218 -25.3848 5.38484		
20.1932 -44.9104 24.9104		
44.4842 39.2277 -59.2277		
36.1389 40.8699 -60.8699		
-39.5879 40.1628 -60.1628		
-6.1217 19.7385 -39.7385		
38.5388 -8.00545 -11.9945		
-3.84632 -16.9353 -3.06467		
-11.1524 33.3353 -53.3353		
0.942571 17.5972 -37.5972		
-31.6889 -41.5623 21.5623		
-1.42476 25.9256 -45.9256		
28.3989 -27.515 7.51505		
-19.7646 24.8046 -44.8046		
22.6792 -40.0415 20.0415		
8.63857 4.22001 -24.22		
16.0037 -6.88527 -13.1147		
-10.2111 49.3565 -69.3565		
-35.1257 31.9347 -51.9347		
24.9112 -31.5157 11.5157		
-6.16358 18.84 -38.84		
-32.511 -18.4503 -1.54967		
7.99917 1.55173 -21.5517		
-9.46548 24.888 -44.888		
7.62461 -33.4063 13.4063		
-15.3204 49.6834 -69.6834		
24.5926 -14.8513 -5.14873		
-15.9214 -35.8886 15.8886		
-48.64 13.5817 -33.5817		
-46.0929 45.7245 -65.7245		
-18.8566 -22.6162 2.61621		
27.6083 -49.8714 29.8714		
-26.7631 -39.5924 19.5924		
-49.1018 -37.071 17.071		
-16.5219 44.8062 -64.8062		
25.9662 -6.29231 -13.7077		
33.763 49.83 -69.83		
-27.2944 38.3493 -58.3493		
36.5821 16.9902 -36.9902		
-10.0894 -31.6411 11.6411		
-24.6214 -23.5654 3.5654		
-10.9852 1.7281 -21.7281		
-22.2845 33.7893 -53.7893		
15.4688 -32.0495 12.0495		
-5.06634 -12.5048 -7.4952		
-22.8582 39.8048 -59.8048		
-13.2674 -11.4281 -8.57185		
21.0347 3.78922 -23.7892		
29.5826 -4.85874 -15.1413		
-48.9486 33.0909 -53.0909		
2.35766 -13.0796 -6.92035		
-18.0291 -23.9116 3.91159		
38.6474 16.8052 -36.8052		
-0.2519 -49.3023 29.3023		
-24.9618 7.39357 -27.3936		
21.8509 -31.6489 11.6489		
-3.21536 -7.51987 -12.4801		
41.5599 49.618 -69.618		
-2.09648 24.6873 -44.6873		
-22.2615 44.8679 -64.8679		
-18.5813 40.3754 -60.3754		
-18.2936 -30.7389 10.7389		
-10.3286 21.342 -41.342		
-39.4072 -39.8106 19.8106		
-8.6496 15.3443 -35.3443		
-23.3232 11.8285 -31.8285		
-25.4026 3.68817 -23.6882		
21.9448 -48.172 28.172		
-3.20017 5.36397 -25.364		
-5.44248 -49.7914 29.7914		
-4.56112 -20.7967 0.796659		
-20.8779 -9.94773 -10.0523		
-17.5658 11.33 -31.33		
-5.50654 -19.4661 -0.533878		
24.6414 34.5729 -54.5729		
-30.1951 0.593749 -20.5937		
46.8761 37.2337 -57.2337		
6.19808 10.3405 -30.3405		
39.6061 -6.51216 -13.4878		
-4.84632 -48.9798 28.9798		
0.503324 -42.1287 22.1287		
-18.3391 44.3703 -64.3703		
11.2254 10.6299 -30.6299		
42.27 -48.9017 28.9017		
18.4871 15.127 -35.127		
-15.653 -45.0024 25.0024		
-48.1004 -49.2291 29.2291		
45.2736 -45.3362 25.3362		
29.0253 41.2031 -61.2031		
-6.07225 28.2346 -48.2346		
44.147 -45.7644 25.7644		
-32.7504 13.5273 -33.5273		
-3.10078 38.3196 -58.3196		
-13.7283 41.8018 -61.8018		
44.4597 32.1269 -52.1269		
-32.6686 31.2448 -51.2448		
-40.5083 -5.43454 -14.5655		
16.8814 -3.27188 -16.7281		
45.7466 -49.0012 29.0012		
30.0509 23.8114 -43.8114		
-48.0144 -29.0903 9.09025		
31.5295 -41.9458 21.9458		
34.6095 39.8654 -59.8654		
25.4801 3.61573 -23.6157		
-43.6073 -22.1045 2.10449		
-38.6866 1.8679 -21.8679		
-10.2909 -26.6459 6.64592		
40.3801 16.1475 -36.1475		
23.1012 -15.6797 -4.32027		
-15.7279 46.726 -66.726		
-37.7057 23.4342 -43.4342		
31.7215 16.0461 -36.0461		
28.6732 -31.6194 11.6194		
-40.1141 11.4641 -31.4641		
43.0036 15.2405 -35.2405		
-23.4774 44.5624 -64.5624		
-46.9082 -26.6319 6.63191		
-42.2575 31.6502 -51.6502		
17.6933 -48.3417 28.3417		
14.3412 -38.4093 18.4093		
49.6333 33.4789 -53.4789		
-38.3998 -43.5026 23.5026		
36.0929 -16.6476 -3.35237		
17.1077 12.7823 -32.7823		
-18.7969 7.26232 -27.2623		
14.4904 -15.6759 -4.32408		
-20.7738 -37.305 17.305		
41.8956 -13.5924 -6.40758		
11.0403 14.7867 -34.7867		
-19.8636 -25.6182 5.6182		
20.2716 -12.6121 -7.3879		
-17.691 -16.8437 -3.15633		
16.2229 -13.8125 -6.18747		
10.4875 -13.7445 -6.25546		
-48.9857 28.092 -48.092		
-3.5063 10.5107 -30.5107		
0.111993 -42.3773 22.3773		
18.3956 -0.799308 -19.2007		
-4.07754 33.5107 -53.5107		
-10.823 -20.8583 0.858309		
-11.1871 44.1916 -64.1916		
-27.8499 -49.9251 29.9251		
-47.7938 -47.6219 27.6219		
43.4128 7.66678 -27.6668		
-10.7734 3.03152 -23.0315		
27.9095 9.69274 -29.6927		
-6.60274 -25.0919 5.09187		
4.06918 41.9584 -61.9584		
-40.9845 -33.1159 13.1159		
-23.4759 30.975 -50.975		
-10.5966 32.6584 -52.6584		
-39.9957 -0.948616 -19.0514		
32.5296 43.9463 -63.9463		
-30.3864 43.8974 -63.8974		
3.9607 4.3756 -24.3756		
5.46176 45.9147 -65.9147		
35.8024 18.0249 -38.0249		
19.3351 -21.3004 1.30042		
1.00361 -22.756 2.75603		
10.3501 2.82034 -22.8203		
-43.1664 32.7553 -52.7553		
-4.14539 -24.6023 4.60226		
-32.81 -9.95735 -10.0427		
-41.5096 -12.3736 -7.62637		
38.2999 -17.3188 -2.68119		
2.86608 -20.3118 0.311755		
21.6687 34.1623 -54.1623		
16.2822 -34.1283 14.1283		
46.1969 -37.1805 17.1805		
-10.393 5.72739 -25.7274		
-24.9067 20.0513 -40.0513		
-13.8751 -3.374 -16.626		
35.8963 -45.5545 25.5545		
-35.9436 28.7455 -48.7455		
27.6793 -4.51255 -15.4875		
17.7352 47.2921 -67.2921		
-22.3525 -19.4564 -0.54356		
-41.6676 -11.8842 -8.11581		
-30.7929 -44.2131 24.2131		
-18.4315 42.4417 -62.4417		
29.5202 36.7603 -56.7603		
0.293772 -22.7097 2.70967		
-26.6109 -13.3814 -6.6186		
3.6469 40.9354 -60.9354		
36.5006 -33.9885 13.9885		
-6.6056 -43.3404 23.3404		
29.0939 -27.26 7.25996		
4.03806 -10.352 -9.64798		
-30.7748 -14.3851 -5.61492		
17.8459 49.6289 -69.6289		
8.29723 -27.6252 7.62521		
-1.46466 -5.29852 -14.7015		
33.9553 -38.8527 18.8527		
7.38115 -27.414 7.41405		
-41.9786 -2.93108 -17.0689		
-10.8471 -4.08804 -15.912		
32.461 34.7379 -54.7379		
41.3492 -5.25068 -14.7493		
34.0762 -2.48349 -17.5165		
-47.042 38.0776 -58.0776		
3.69838 45.3259 -65.3259		
34.962 35.8458 -55.8458		
-32.0233 13.4315 -33.4315		
-1.18748 24.5708 -44.5708		
30.1647 -41.1481 21.1481		
48.3221 27.4888 -47.4888		
-45.0233 47.2446 -67.2446		
-6.8388 -36.574 16.574		
30.2883 27.3208 -47.3208		
-28.2471 -22.4473 2.44728		
-9.1434 1.35693 -21.3569		
29.306 -6.56816 -13.4318		
44.5917 14.0063 -34.0063		
39.3882 -3.19684 -16.8032		
26.2311 6.2128 -26.2128		
-19.6376 32.6811 -52.6811		
27.6799 5.19447 -25.1945		
13.053 -3.80052 -16.1995		
-28.0866 45.8622 -65.8622		
-18.273 -25.6993 5.69932		
-9.96422 -39.2626 19.2626		
11.6792 0.709679 -20.7097		
39.4602 35.722 -55.722		
-5.96348 37.3173 -57.3173		
-40.6913 -8.94633 -11.0537		
-25.5541 -19.0376 -0.962418		
20.1573 20.8499 -40.8499		
-38.1561 1.91925 -21.9192		
-23.0145 9.9026 -29.9026		
-40.5517 17.1237 -37.1237		
-44.3344 21.8319 -41.8319		
-3.3789 -15.953 -4.04702		
18.2697 -14.6123 -5.38774		
26.4407 -47.3154 27.3154		
34.2654 -48.4571 28.4571		
-41.3588 11.2806 -31.2806		
29.5753 -14.3018 -5.69817		
24.9133 -6.82996 -13.17		
-1.34449 -45.1499 25.1499		
-43.086 33.7895 -53.7895		
-32.4915 10.703 -30.703		
40.6898 -24.3475 4.34749		
-15.0856 -32.4791 12.4791		
46.4326 9.2488 -29.2488		
-15.0872 6.99975 -26.9998		
-34.8779 8.86617 -28.8662		
-31.2951 -7.16206 -12.8379		
-23.7858 41.7401 -61.7401		
-27.1526 13.3104 -33.3104		
-9.97923 21.5962 -41.5962		
-45.238 -13.68 25.238		
4.01964 20.8307 -24.0196		
13.5904 5.59355 -33.5904		
9.70708 -37.6541 -29.7071		
8.76198 -45.7797 -28.762		
-1.98437 -0.202159 -18.0156		
-19.5409 -43.4399 -0.459144		
33.5506 28.9503 -53.5506		
-18.9517 18.6995 -1.04827		
23.0969 -37.2484 -43.0969		
-43.9877 -34.6008 23.9877		
49.6307 29.3197 -69.6307		
28.4178 27.9173 -48.4178		
-42.4691 4.34909 22.4691		
43.1793 -21.115 -63.1793		
27.9125 -20.2099 -47.9125		
13.1722 5.60288 -33.1722		
-9.47374 -0.321597 -10.5263		
-7.36036 21.818 -12.6396		
-42.4629 21.3802 22.4629		
-19.4237 -30.7473 -0.576275		
32.8393 19.0732 -52.8393		
-49.4595 19.9508 29.4595		
22.6692 -48.0821 -42.6692		
24.3334 49.453 -44.3334		
-7.681 -42.1904 -12.319		
-15.7023 -19.3049 -4.29774		
29.294 -26.2627 -49.294		
-14.9737 -6.50539 -5.02626		
10.2145 33.6822 -30.2145		
-37.8724 44.7315 17.8724		
-15.4603 39.4978 -4.5397		
-11.0649 43.0493 -8.9351		
6.92328 -44.2956 -26.9233		
18.8022 -33.0372 -38.8022		
44.4927 47.6144 -64.4927		
-37.2154 -20.855 17.2154		
-33.6383 24.6739 13.6383		
-43.2802 -12.971 23.2802		
26.9018 -32.1205 -46.9018		
-35.4821 -1.06692 15.4821		
-7.69143 -22.8759 -12.3086		
-49.3323 4.40098 29.3323		
-0.931536 20.2147 -19.0685		
18.0001 -4.49515 -38.0001		
-9.26609 -1.8398 -10.7339		
29.4283 -20.639 -49.4283		
-27.724 -1.65576 7.72396		
31.1391 24.329 -51.1391		
-48.0667 -25.6704 28.0667		
36.254 -49.7172 -56.254		
40.9378 12.4784 -60.9378		
-31.2411 -48.2901 11.2411		
-30.9648 27.393 10.9648		
4.04961 11.2596 -24.0496		
48.8661 15.8889 -68.8661		
-46.137 38.3523 26.137		
13.943 46.3688 -33.943		
-20.8111 -38.0092 0.811143		
7.02385 -33.577 -27.0239		
-36.2559 39.3117 16.2559		
-6.01111 -23.5705 -13.9889		
-25.0907 21.5719 5.09073		
6.21685 25.0445 -26.2169		
-24.7166 -49.9643 4.71657		
-12.0223 -43.2388 -7.97766		
4.56244 35.1871 -24.5624		
-10.4664 30.543 -9.53356		
-18.8123 46.2834 -1.18771		
-12.1989 -46.8208 -7.80109		
37.7491 -16.2971 -57.7491		
43.4137 -21.3271 -63.4137		
-8.08833 34.3819 -11.9117		
31.8714 19.52 -51.8714		
-9.34748 47.4756 -10.6525		
-46.665 0.915383 26.665		
-8.24003 -40.6964 -11.76		
-26.9275 6.87558 6.92755		
26.9111 39.9243 -46.9111		
-44.3887 -36.3426 24.3887		
-39.1861 -8.14792 19.1861		
-45.5936 22.5883 25.5936		
-1.30951 -0.353417 -18.6905		
-10.5753 23.7032 -9.42466		
0.49852 -20.1823 -20.4985		
-23.7749 -29.1162 3.77495		
-17.7615 -13.9382 -2.23854		
2.68393 22.4922 -22.6839		
-3.85725 4.48713 -16.1428		
-26.7542 -48.9168 6.75417		
34.2382 16.9657 -54.2382		
44.218 23.0868 -64.218		
-24.853 21.012 4.85305		
-6.2319 -24.1332 -13.7681		
-6.91089 -43.2418 -13.0891		
25.1339 22.3017 -45.1339		
0.514403 36.4646 -20.5144		
44.2498 40.2907 -64.2498		
39.4338 -41.297 -59.4338		
16.0106 25.3241 -36.0106		
-24.8129 -21.9285 4.81288		
-38.2958 38.1428 18.2958		
27.4186 -32.824 -47.4186		
39.1436 -17.5226 -59.1436		
6.98356 -35.6222 -26.9836		
-29.1299 2.92689 9.12994		
47.1396 -26.8045 -67.1396		
-37.3686 28.7402 17.3686		
33.6094 -25.1058 -53.6094		
-41.8436 0.25314 21.8436		
-49.7208 -31.8471 29.7208		
-25.6232 44.4795 5.62324		
10.2608 -18.1687 -30.2608		
24.6492 8.47465 -44.6492		
39.8744 9.39586 -59.8744		
-10.436 -27.9642 -9.56396		
28.7665 -10.7086 -48.7665		
48.5108 -15.4039 -68.5108		
-37.7115 38.5449 17.7115		
40.8074 24.8132 -60.8074		
-4.34757 40.54 -15.6524		
45.4018 -40.1834 -65.4018		
40.7688 -43.7317 -60.7688		
-11.642 -46.3801 -8.35798		
-49.8557 1.21437 29.8557		
32.7727 43.5187 -52.7727		
18.1361 -0.765869 -38.1361		
11.3352 -46.3809 -31.3352		
26.4513 -13.4265 -46.4513		
-7.79891 -18.0718 -12.2011		
-8.05018 -32.0117 -11.9498		
-41.8118 -13.2299 21.8118		
23.2101 -40.6905 -43.2101		
-7.9478 -41.6777 -12.0522		
-45.6225 -25.2973 25.6225		
15.3802 41.8631 -35.3802		
-34.5757 -24.6307 14.5757		
-3.18645 -25.9412 -16.8135		
42.5101 -38.5927 -62.5101		
48.802 2.93021 -68.802		
-7.28421 -35.5375 -12.7158		
40.7014 -37.749 -60.7014		
8.23288 -32.501 -28.2329		
20.3116 24.4836 -40.3116		
19.1779 -44.8501 -39.1779		
-25.0706 26.2701 5.07063		
45.1971 -9.81845 -65.1971		
-23.9111 -16.423 3.91112		
-39.7654 -34.1125 19.7654		
38.6389 -27.1858 -58.6389		
29.0852 26.6311 -49.0852		
-37.942 35.8477 17.942		
-42.0694 -17.7871 22.0694		
13.1006 -30.5223 -33.1006		
10.3666 0.120844 -30.3666		
-8.8683 14.533 -11.1317		
-18.7121 34.5042 -1.28788		
-6.37046 20.6278 -13.6295		
-36.4112 -23.3726 16.4112		
-42.5416 -10.9152 22.5416		
-10.3994 14.3123 -9.60058		
-33.8893 -42.006 13.8893		
-23.6571 -22.3915 3.65709		
23.072 13.2581 -43.072		
-1.32917 -6.75919 -18.6708		
22.158 35.7401 -42.158		
24.3869 -20.3573 -44.3869		
-10.6578 41.9961 -9.34223		
-34.6368 -41.4441 14.6368		
-32.4281 -42.2735 12.4281		
-37.9065 36.4159 17.9065		
-36.3836 -42.8397 16.3836		
33.5707 -13.5456 -53.5707		
1.4414 -44.3001 -21.4414		
-47.8741 -2.5411 27.8741		
37.4266 38.4806 -57.4266		
6.80872 26.5285 -26.8087		
-41.5489 24.3363 21.5489		
-14.5401 -48.4386 -5.4599		
-47.7292 -31.0028 27.7292		
6.48692 -0.803575 -26.4869		
-24.2916 -15.2431 4.29163		
0.464933 38.0816 -20.4649		
17.3995 -23.8506 -37.3995		
-22.4703 48.2933 2.47034		
11.4165 -43.0969 -31.4165		
39.0176 38.9346 -59.0176		
-17.241 47.4043 -2.75896		
8.1354 -39.6043 -28.1354		
-38.1812 -33.7762 18.1812		
-12.1367 34.1169 -7.86326		
-44.0221 41.3614 24.0221		
33.9729 -5.85629 -53.9729		
20.77 33.1761 -40.77		
6.15454 43.6218 -26.1545		
38.679 -25.1563 -58.679		
-25.0278 49.3477 5.02781		
47.4032 -8.36006 -67.4032		
20.5609 36.1697 -40.5609		
-47.5637 -38.4029 27.5637		
-15.2329 -36.6237 -4.76713		
40.4574 -45.2174 -60.4574		
15.1489 35.055 -35.1489		
3.06827 13.9204 -23.0683		
14.9389 -7.43202 -34.9389		
-47.2525 4.56175 27.2525		
-8.73239 17.3769 -11.2676		
-6.22826 1.21369 -13.7717		
-20.0087 49.6402 0.00874616		
26.9057 -27.419 -46.9057		
10.3262 21.7429 -30.3262		
12.6224 -30.6401 -32.6224		
-0.268262 31.05 -19.7317		
-34.9419 10.6942 14.9419		
6.36436 -46.9557 -26.3644		
46.7271 -8.99488 -66.7271		
-33.643 -28.464 13.643		
-24.1644 -40.5933 4.16436		
12.3653 44.1888 -32.3653		
42.5026 -1.51758 -62.5026		
24.9226 -10.6673 -44.9226		
-18.334 11.995 -1.66601		
-23.2047 -38.8819 3.20472		
8.08149 -24.9589 -28.0815		
26.3022 -33.8325 -46.3022		
25.7145 -30.6179 -45.7145		
41.506 28.903 -61.506		
-49.0179 42.1003 29.0179		
-23.5401 31.1888 3.54009		
-32.0426 -16.679 12.0426		
29.5087 40.083 -49.5087		
39.0408 -4.46299 -59.0408		
26.6819 30.4526 -46.6819		
41.0974 37.7222 -61.0974		
1.61594 49.2954 -21.6159		
37.444 11.7233 -57.444		
-9.71085 -18.4299 -10.2891		
25.1694 -23.6296 -45.1694		
-2.22227 -12.255 -17.7777		
46.9271 9.34468 -66.9271		
-5.11661 15.7414 -14.8834		
-3.17217 22.3304 -16.8278		
41.2958 14.1499 -61.2958		
0.39306 -9.21423 -20.3931		
46.2478 8.11931 -66.2478		
-25.6495 47.1465 5.6495		
-0.763793 38.3326 -19.2362		
-25.4426 -34.5368 5.44264		
44.346 -12.1759 -64.346		
-40.4688 48.9907 20.4688		
1.15037 -15.5995 -21.1504		
36.3072 42.7345 -56.3072		
-24.3605 -32.5285 4.36048		
-17.0248 -36.7619 -2.9752		
15.7617 -40.3532 -35.7617		
38.2774 -0.218839 -58.2774		
20.5021 -11.4602 -40.5021		
-12.2731 48.8621 -7.72694		
-29.5064 7.25983 9.50641		
8.87037 2.31671 -28.8704		
20.0692 -9.91688 -40.0692		
18.5876 -24.1795 -38.5876		
35.3836 -37.65 -55.3836		
2.46192 -33.6958 -22.4619		
44.9879 -13.0968 -64.9879		
-9.79646 -30.3195 -10.2035		
32.2555 -19.7013 -52.2555		
5.76504 -5.66505 -25.765		
-22.0114 -17.8604 2.01139		
-38.141 16.5235 18.141		
-41.5924 -42.0007 21.5924		
-19.5615 1.47674 -0.438509		
45.4448 21.9021 -65.4448		
-43.8315 33.2174 23.8315		
37.0513 -10.4389 -57.0513		
-30.8348 40.2926 10.8348		
9.66491 -17.8195 -29.6649		
-45.7111 49.1534 25.7111		
38.9059 -33.7482 -58.9059		
18.7655 12.3677 -38.7655		
-18.4095 15.7725 -1.59052		
-20.1404 44.3 0.14043		
-14.5759 13.7588 -5.42412		
-3.52464 -14.9537 -16.4754		
16.4735 39.5099 -36.4735		
46.9086 -35.1796 -66.9086		
-17.8687 -1.24789 -2.1313		
35.2385 27.4951 -55.2385		
30.3381 -46.6026 -50.3381		
-36.1866 5.43686 16.1866		
-16.8546 16.2897 -3.14543		
-27.6599 40.0254 7.65985		
22.6054 -6.01369 -42.6054		
38.3863 26.1343 -58.3863		
-45.2938 44.079 25.2938		
-11.1566 -11.3281 -8.84339		
-47.8235 -2.10212 27.8235		
-39.6126 46.4096 19.6126		
15.7378 5.27728 -35.7378		
-24.462 -48.6064 4.46197		
48.3671 17.3881 -68.3671		
17.7855 19.3057 -37.7855		
37.561 14.947 -57.561		
33.1742 48.07 -53.1742		
41.5857 -18.0832 -61.5857		
24.2891 -42.5228 -44.2891		
5.45614 19.0429 -25.4561		
-0.615003 -28.8337 -19.385		
-17.2299 -31.9009 -2.77013		
-14.3154 -25.4162 -5.68457		
-35.8336 -18.1363 15.8336		
37.6057 42.7307 -57.6057		
-37.855 -18.4121 17.855		
38.3555 -31.0276 -58.3555		
47.0524 -32.7863 -67.0524		
-12.9266 29.9105 -7.07338		
-17.5589 6.4585 -2.44109		
40.0625 -20.7878 -60.0625		
-41.1133 -38.0002 21.1133		
-15.0726 -0.196351 -4.92737		
-35.5556 45.5205 15.5556		
33.3776 -23.5497 -53.3776		
-0.991371 -48.9501 -19.0086		
44.4887 -33.7669 -64.4887		
-23.7413 -4.68798 3.74125		
34.3493 -43.238 -54.3493		
-36.2464 24.5259 16.2464		
-22.0655 -23.2821 2.06552		
-27.1948 -22.7891 7.19481		
11.5448 -14.436 -31.5448		
-38.8528 -11.7318 18.8528		
8.81287 40.1638 -28.8129		
-4.25653 17.8961 -15.7435		
-1.95315 -17.6583 -18.0469		
37.2041 -5.83339 -57.2041		
-2.64225 48.8516 -17.3578		
-28.8701 40.4219 8.87006		
2.25923 -4.65565 -22.2592		
-39.331 28.6722 19.331		
-5.14375 -3.8583 -14.8562		
-20.8359 -47.4876 0.835866		
-12.7003 10.1351 -7.29967		
35.1044 -23.6739 -55.1044		
24.43 46.2796 -44.43		
8.48456 3.31106 -28.4846		
-35.3313 38.7817 15.3313		
-3.44386 25.833 -16.5561		
-0.703879 -15.2316 -19.2961		
-23.519 11.2537 3.51897		
15.4125 -20.1055 -35.4125		
28.2106 0.447455 -48.2106		
17.1255 -43.867 -37.1255		
-40.8869 -19.775 20.8869		
26.3607 4.78202 -46.3607		
-41.5785 48.6911 21.5785		
2.14175 -13.6261 -22.1418		
38.514 42.1351 -58.514		
-10.1063 -43.9851 -9.89367		
9.52348 32.6199 -29.5235		
43.7775 7.94511 -63.7775		
10.9512 41.1107 -30.9512		
35.9962 40.8799 -55.9962		
6.66284 5.027 -26.6628		
-29.3076 -15.4301 9.30763		
-31.0841 43.5683 11.0841		
26.1788 -19.5591 -46.1788		
-16.6208 25.2769 -3.37922		
-40.1454 -34.3806 20.1454		
30.1823 39.1112 -50.1823		
-38.0554 48.8649 18.0554		
47.6135 -49.1249 -67.6135		
-16.1239 41.4031 -3.87607		
-2.13771 -46.14 -17.8623		
22.8157 44.8287 -42.8157		
-48.6319 -19.2262 28.6319		
14.3953 46.1259 -34.3953		
11.8301 -11.5532 -31.8301		
-27.5404 17.0372 7.54044		
-31.5751 -32.5697 11.5751		
-17.2189 -44.3581 -2.78113		
45.4782 -39.731 -65.4782		
-13.3592 -45.4227 -6.64083		
-19.0668 10.1375 -0.933176		
9.86535 -37.1392 -29.8653		
-44.5706 32.5063 24.5706		
0.569478 0.0514126 -20.5695		
4.38264 24.9679 -24.3826		
-36.9998 43.8303 16.9998		
33.0511 44.8948 -53.0511		
-17.6067 -40.5093 -2.3933		
40.1885 -42.2664 -60.1885		
-1.38961 -7.05556 -18.6104		
-26.5636 36.7016 6.56358		
45.9729 -3.16411 -65.9729		
-45.0902 35.2034 25.0902		
-44.5286 -42.8433 24.5286		
14.6178 48.0255 -34.6178		
-7.93829 11.9457 -12.0617		
45.0134 37.0509 -65.0134		
23.1882 -47.9926 -43.1882		
-49.3627 -22.8088 29.3627		
38.0845 -8.88711 -58.0845		
3.73909 -26.152 -23.7391		
-23.1663 8.65745 3.16631		
19.0617 14.9743 -39.0617		
14.9612 28.0674 -34.9612		
-28.4156 -30.3743 8.41561		
35.2511 29.1126 -55.2511		
-2.32075 34.7795 -17.6793		
-4.07391 -44.8086 -15.9261		
-19.546 -23.5927 -0.454037		
-49.3663 28.3865 29.3663		
28.6066 -6.04463 -48.6066		
-31.7887 -17.2422 11.7887		
10.2319 33.2325 -30.2319		
37.3381 43.565 -57.3381		
-12.969 -21.5295 -7.03097		
5.13621 -13.8527 -25.1362		
7.5196 -2.40848 -27.5196		
20.5671 20.8623 -40.5671		
-48.3006 -9.42626 28.3006		
34.3993 -4.5486 -54.3993		
1.79485 48.8031 -21.7949		
-8.91515 -1.86289 -11.0848		
-37.0964 -45.367 17.0964		
-24.5924 12.8682 4.59236		
-38.9516 -17.5348 18.9516		
-17.5753 -13.1892 -2.42473		
30.0823 -17.4872 -50.0823		
43.4001 46.693 -63.4001		
34.8699 -1.67137 -54.8699		
-10.7585 -32.5614 -9.24154		
11.3097 11.1697 -31.3097		
33.6354 -49.6292 -53.6354		
5.57264 24.3401 -25.5726		
19.475 15.3835 -39.475		
26.3439 47.415 -46.3439		
-20.044 25.4547 0.0439915		
-5.33443 36.4147 -14.6656		
22.4306 31.5499 -42.4306		
-37.3382 -48.7421 17.3382		
-19.2915 -34.6567 -0.708451		
-37.0048 -23.0999 17.0048		
-22.3541 -1.12375 2.35415		
-29.4346 -13.5406 9.43463		
-12.4093 44.1973 -7.5907		
-46.0357 33.0586 26.0357		
3.31836 -9.65941 -23.3184		
18.7153 -1.50631 -38.7153		
-7.52001 -22.6262 -12.48		
-14.5759 -29.3687 -5.4241		
-36.7448 23.7421 16.7448		
-27.137 -6.98231 7.13696		
37.7284 13.0509 -57.7284		
-29.1463 -2.24697 9.14626		
21.707 -25.3179 -41.707		
-49.7288 -49.5178 29.7288		
-4.41802 -11.1154 -15.582		
-18.7979 -39.5728 -1.20208		
38.3819 -35.6246 -58.3819		
37.8634 -23.7299 -57.8634		
-17.8268 -15.8837 -2.17318		
-37.3425 -19.607 17.3425		
9.53138 39.8144 -29.5314		
41.7449 -0.462924 -61.7449		
-7.6778 19.5644 -12.3222		
41.5498 -9.2111 -61.5498		
27.8818 -32.1952 -47.8818		
28.4091 -12.8739 -48.4091		
-42.0462 -38.9781 22.0462		
22.5632 13.1608 -42.5632		
14.5719 32.9223 -34.5719		
-22.0234 38.7433 2.02341		
47.1055 -11.5245 -67.1055		
27.5771 15.9769 -47.5771		
-42.5445 -24.4028 22.5445		
10.1569 16.396 -30.1569		
-6.71723 -15.9888 -13.2828		
5.92377 -45.9718 -25.9238		
13.8568 24.1465 -33.8568		
-37.5609 45.1913 17.5609		
39.4889 15.0263 -59.4889		
-33.4601 -48.5822 13.4601		
-8.42124 -10.7264 -11.5788		
22.3804 37.9181 -42.3804		
-21.9458 22.7271 1.94579		
-33.8394 -20.778 13.8394		
-2.61105 -1.11523 -17.389		
-14.3756 35.0141 -5.62443		
28.9536 12.429 -48.9536		
-1.14551 22.5664 -18.8545		
-2.59939 10.7993 -17.4006		
23.2364 -47.9277 -43.2364		
5.49796 14.7987 -25.498		
-21.0025 41.7496 1.00247		
-24.5803 -8.21873 4.58033		
44.3361 -39.0009 -64.3361		
-27.3009 25.9444 7.3009		
-21.7275 21.6142 1.72751		
35.0342 0.0806685 -55.0342		
-49.9244 -38.3838 29.9244		
-19.5758 -29.9219 -0.424157		
22.8086 5.65291 -42.8086		
23.6381 15.7173 -43.6381		
-10.4854 14.8848 -9.51465		
-44.2538 -31.6632 24.2538		
11.5886 10.9946 -31.5886		
26.7357 -44.2436 -46.7357		
-20.5662 9.98797 0.566239		
3.22593 -29.3808 -23.2259		
11.9196 -16.9434 -31.9196		
-15.5818 -24.1116 -4.4182		
2.54941 4.01176 -22.5494		
30.2998 -0.0164242 -50.2998		
-36.4412 15.8595 16.4412		
-4.72118 -17.7125 -15.2788		
-19.4595 -5.00512 -0.540495		
-34.2674 -23.0941 14.2674		
-20.8013 -25.849 0.801307		
11.3555 7.00358 -31.3555		
26.818 37.7605 -46.818		
-18.159 -46.5082 -1.84099		
-8.99685 32.6687 -11.0031		
34.8526 31.0795 -54.8526		
-35.5075 24.6832 15.5075		
14.394 16.0448 -34.394		
42.4141 42.3495 -62.4141		
-20.4376 16.1609 0.437631		
39.531 -49.2558 -59.531		
49.1102 18.8905 -69.1102		
-28.1619 32.7479 8.16186		
14.8055 18.3327 -34.8055		
-26.5418 -2.5804 6.54179		
-49.6685 7.98256 29.6685		
19.1786 -34.8145 -39.1786		
31.4934 24.7558 -51.4934		
41.5953 -0.724166 -61.5953		
1.56665 45.8887 -21.5666		
-11.3865 -29.6373 -8.61354		
3.475 -1.86344 -23.475		
-43.9193 -30.7072 23.9193		
-17.6587 -43.0171 -2.34126		
20.9792 -18.6631 -40.9792		
-5.49215 -17.3468 -14.5078		
-29.913 15.8834 9.91302		
-19.4051 15.9824 -0.59492		
-7.60849 1.1019 -12.3915		
-41.9691 36.5657 21.9691		
-49.6765 12.309 29.6765		
14.1345 -16.7108 -34.1345		
42.1408 -0.142051 -62.1408		
-24.5407 3.56393 4.54065		
13.7606 4.90076 -33.7606		
42.0957 -36.8694 -62.0957		
42.9819 -41.7424 -62.9819		
49.4357 -38.3185 -69.4357		
1.50129 -32.2861 -21.5013		
-14.5782 -31.5507 -5.42183		
-8.75228 -29.3912 -11.2477		
33.8054 45.1452 -53.8054		
28.0548 43.4154 -48.0548		
-22.0578 6.81636 2.05782		
-6.6739 22.8956 -13.3261		
31.4982 -45.3575 -51.4982		
44.8437 20.5706 -64.8437		
0.529008 3.49901 -20.529		
4.87723 -30.3322 -24.8772		
2.0031 -41.8788 -22.0031		
-36.0788 -3.40227 16.0788		
-49.5294 13.2064 29.5294		
8.06263 16.0114 -28.0626		
35.0282 23.6559 -55.0282		
37.9906 42.6147 -57.9906		
19.223 -25.0646 -39.223		
49.6105 2.43359 -69.6105		
17.7341 4.80192 -37.7341		
-39.6583 47.0128 19.6583		
49.4001 -28.7549 -69.4001		
-31.5904 -6.47716 11.5904		
49.003 3.20556 -69.003		
29.1559 -5.78182 -49.1559		
12.7812 -24.9883 -32.7812		
44.1382 -28.7791 -64.1382		
36.406 0.301765 -56.406		
18.1936 35.9834 -38.1936		
45.8846 -26.5798 -65.8846		
-3.26008 2.99405 -16.7399		
-31.369 -26.5472 11.369		
-10.1327 22.6271 -9.86734		
-23.0705 2.12087 3.07046		
0.572226 -34.9221 -20.5722		
-38.7839 37.4387 18.7839		
40.0351 -13.7986 -60.0351		
-46.7622 44.5474 26.7622		
-15.6759 -15.8219 -4.32411		
-43.8206 -2.52256 23.8206		
25.2348 41.5823 -45.2348		
-46.9427 -47.9577 26.9427		
47.9456 -29.3081 -67.9456		
-33.3921 -13.4421 13.3921		
9.3657 -8.36946 -29.3657		
41.3933 45.615 -61.3933		
-16.5847 44.727 -3.4153		
-3.16082 -20.1565 -16.8392		
32.2257 -47.5425 -52.2257		
22.5649 15.4362 -42.5649		
-44.2396 -0.662034 24.2396		
-8.66809 45.0161 -11.3319		
-15.5935 -28.7626 -4.40652		
-25.459 45.537 5.45896		
-39.0698 -28.4608 19.0698		
39.7801 16.4717 -59.7801		
-26.1696 27.1737 6.16964		
10.908 8.91431 -30.908		
-20.6822 -42.9784 0.682171		
-0.537838 16.4236 -19.4622		
8.91628 -8.07118 -28.9163		
-31.1049 -24.4062 11.1049		
18.6565 -42.5859 -38.6565		
33.3734 16.0961 -53.3734		
49.4822 5.84859 -69.4822		
7.28973 10.9421 -27.2897		
46.822 -8.30938 -66.822		
10.2079 17.1951 -30.2079		
-28.5361 -31.1451 8.5361		
39.9932 -28.564 -59.9932		
32.3221 5.08048 -52.3221		
-0.559985 26.6044 -19.44		
25.1819 5.44338 -45.1819		
-8.58508 7.5857 -11.4149		
-31.7656 -5.99144 11.7656		
-19.7017 -12.7193 -0.298321		
5.92894 20.9396 -25.9289		
-24.5741 -32.4914 4.57413		
-0.592549 -13.4574 -19.4075		
-33.4388 -14.0627 13.4388		
20.3755 -16.4211 -40.3755		
-13.3219 -13.1965 -6.67807		
27.4679 35.4131 -47.4679		
-25.4779 25.587 5.47788		
11.3456 26.1558 -31.3456		
42.3603 15.5347 -62.3603		
4.59054 -16.6746 -24.5905		
46.0035 -41.4478 -66.0035		
13.1553 -14.5771 -33.1553		
21.2091 44.441 -41.2091		
-29.8056 -27.7564 9.80556		
30.2358 -41.4723 -50.2358		
10.8687 46.8066 -30.8687		
1.86718 36.8933 -21.8672		
38.6522 32.825 -58.6522		
-46.8693 42.9704 26.8693		
-22.729 -11.057 2.72899		
5.43021 -15.9306 -25.4302		
-45.1892 -30.5284 25.1892		
48.2091 27.6435 -68.2091		
-27.6317 38.2764 7.63173		
48.4634 22.2977 -68.4634		
16.8746 -31.5209 -36.8746		
-23.6038 -48.8461 3.6038		
38.9406 48.3416 -58.9406		
29.7435 8.24266 -49.7435		
22.0579 6.8755 -42.0579		
5.57406 35.5149 -25.5741		
-29.9422 41.5712 9.94222		
36.0975 -48.2351 -56.0975		
-37.9768 -18.9774 17.9768		
-24.7041 40.5169 4.70414		
5.15015 -14.0047 -25.1501		
-28.6325 -29.7984 8.63246		
26.0841 40.4662 -46.0841		
6.04995 -4.44661 -26.05		
42.3851 -28.628 -62.3851		
22.5948 8.99325 -42.5948		
33.6261 -31.2649 -53.6261		
41.7693 -15.6376 -61.7693		
13.9433 35.9054 -33.9433		
-1.50043 22.6678 -18.4996		
7.48486 -13.324 -27.4849		
-43.1999 -19.7541 23.1999		
-11.0702 -5.58147 -8.92984		
35.6694 -39.5684 -55.6694		
-16.2788 29.47 -3.72118		
-40.6241 -36.6822 20.6241		
13.4326 -3.35442 -33.4326		
-21.8152 39.1649 1.81518		
-42.6033 16.1523 22.6033		
32.1014 -39.2884 -52.1014		
21.2222 9.68492 -41.2222		
8.00904 -47.2614 -28.009		
1.89605 43.6157 -21.896		
49.7793 -19.9289 -69.7793		
24.8763 12.7395 -44.8763		
-37.7391 -27.9301 17.7391		
12.5137 40.7453 -32.5137		
37.2189 2.50187 -57.2189		
-6.53816 -45.9354 -13.4618		
31.4084 34.8918 -51.4084		
-30.4428 15.2508 10.4428		
-41.0872 -40.3702 21.0872		
-36.7762 -34.4557 16.7762		
-6.33963 37.4244 -13.6604		
31.694 -3.60087 -51.694		
-29.9518 -42.442 9.95184		
21.3774 -34.8757 -41.3774		
28.7722 -15.8438 -48.7722		
-45.1105 8.63018 25.1105		
-40.9534 -30.0485 20.9534		
-41.9433 -12.9768 21.9433		
-49.2819 41.5578 29.2819		
-40.211 -7.72264 20.211		
-48.9821 30.1375 28.9821		
17.9496 -32.9277 -37.9496		
-11.558 15.258 -8.44196		
-2.36486 -37.0416 -17.6351		
38.0833 -9.01314 -58.0833		
27.8421 -35.4976 -47.8421		
-15.1991 29.1241 -4.80092		
21.8809 3.9752 -41.8809		
48.7873 -36.1795 -68.7873		
29.7729 -22.5908 -49.7729		
28.269 42.2431 -48.269		
27.082 13.525 -47.082		
37.2535 11.8376 -57.2535		
38.9468 1.46194 -58.9468		
29.5332 1.93541 -49.5332		
-43.5383 25.136 23.5383		
-27.6779 13.4632 7.67792		
-7.78867 11.1996 -12.2113		
11.3453 -29.6533 -31.3453		
-18.4873 25.1882 -1.51268		
-32.6087 -27.8968 12.6087		
39.4129 12.9538 -59.4129		
-32.1358 -34.4115 12.1358		
-28.7158 -43.9543 8.71581		
23.9051 -37.864 -43.9051		
11.5735 43.0965 -31.5735		
-1.32398 29.2745 -18.676		
-5.5818 48.288 -14.4182		
0.110499 -41.9092 -20.1105		
-22.9576 34.3391 2.95763		
-37.8622 -48.238 17.8622		
-2.42786 -35.1033 -17.5721		
4.65261 46.8706 -24.6526		
28.8836 45.8591 -48.8836		
25.8438 -40.5261 -45.8438		
40.5979 48.0017 -60.5979		
5.47569 27.3786 -25.4757		
-13.1348 -6.42829 -6.8652		
13.8738 -42.9201 -33.8738		
-12.1206 -48.8913 -7.87939		
41.6056 -28.1875 -61.6056		
17.4756 -25.1501 -37.4756		
1.00299 -28.2401 -21.003		
-42.4713 -11.2995 22.4713		
11.0478 -32.0545 -31.0478		
-19.6598 42.1143 -0.340246		
-0.878586 -4.74177 -19.1214		
-29.6339 -33.5219 9.63385		
-34.4245 20.8269 14.4245		
17.0378 -22.4937 -37.0378		
34.2302 -40.1319 -54.2302		
-31.3485 18.1288 11.3485		
-21.2075 -1.67822 1.2075		
26.8489 2.89612 -46.8489		
-43.7498 7.07853 23.7498		
15.4356 -36.2915 -35.4356		
-34.1828 18.6935 14.1828		
-28.6188 30.2783 8.61878		
-15.0729 0.466625 -4.92712		
-19.3652 22.6538 -0.63483		
-35.647 32.4784 15.647		
-45.0693 10.8044 25.0693		
-25.3333 4.67009 5.33331		
10.2942 -45.971 -30.2942		
36.0546 49.139 -56.0546		
-43.891 -23.6317 23.891		
42.2487 34.4405 -62.2487		
-3.57251 -4.96148 -16.4275		
-41.1379 -7.96704 21.1379		
-9.39133 39.1964 -10.6087		
37.3318 -10.4938 -57.3318		
44.4642 -22.9528 -64.4642		
48.8479 -21.1151 -68.8479		
-16.5351 7.88734 -3.46487		
-24.422 26.7526 4.422		
0.454599 30.4098 -20.4546		
28.8619 -34.738 -48.8619		
19.0517 4.36234 -39.0517		
34.9374 -46.6305 -54.9374		
-49.8528 5.40515 29.8528		
-40.0707 -0.564789 20.0707		
