1755
31.3224 -41.3224 -5.924		
48.2333 -58.2333 14.4519		
48.8624 -58.8624 8.04071		
-28.3715 18.3715 -46.2159		
12.4881 -22.4881 -40.887		
-19.7564 9.75636 20.1969		
7.43849 -17.4385 33.281		
-19.6288 9.62881 27.6672		
28.9992 -38.9992 29.3245		
-30.1402 20.1402 -35.0876		
4.84604 -14.846 31.6935		
33.4671 -43.4671 9.73935		
-37.0852 27.0852 35.8134		
-19.2977 9.29775 42.3875		
48.5134 -58.5134 6.8954		
-24.3563 14.3563 -39.0725		
-37.5533 27.5533 6.94954		
34.9662 -44.9662 31.3006		
49.3084 -59.3084 24.2345		
45.7363 -55.7363 43.2739		
6.85381 -16.8538 -6.05723		
-17.7155 7.71548 16.177		
-45.6482 35.6482 30.3951		
30.8465 -40.8465 -7.14428		
9.88648 -19.8865 -28.5426		
35.2508 -45.2508 40.5675		
-44.1949 34.1949 0.814126		
28.5727 -38.5727 34.7422		
45.4034 -55.4034 -28.6456		
-6.57901 -3.42099 48.359		
36.6074 -46.6074 -19.1329		
9.46777 -19.4678 14.4093		
45.0354 -55.0354 32.901		
-46.6737 36.6737 -43.9079		
47.6392 -57.6392 -34.5313		
-39.3459 29.3459 -32.0687		
7.08113 -17.0811 -9.71883		
-21.123 11.123 43.1341		
39.1514 -49.1514 -30.8487		
27.0124 -37.0124 26.5163		
-31.911 21.911 -23.3791		
18.8679 -28.8679 -44.6487		
2.06318 -12.0632 7.61341		
-20.0609 10.0609 -20.1475		
41.7359 -51.7359 26.1349		
-25.1263 15.1263 -26.7629		
-11.9146 1.91455 -30.8787		
13.0037 -23.0037 -47.6413		
1.88765 -11.8877 14.7586		
33.0054 -43.0054 42.3355		
32.6423 -42.6423 -49.9679		
-9.58515 -0.414853 -42.5988		
-0.28257 -9.71743 24.7421		
17.9393 -27.9393 10.9208		
-16.542 6.54204 16.2686		
-31.4954 21.4954 -44.2644		
-14.1538 4.15378 20.9003		
40.8769 -50.8769 38.824		
-33.2883 23.2883 24.0182		
-44.7628 34.7628 43.7773		
27.3393 -37.3393 -4.99099		
-32.4579 22.4579 -45.0584		
13.5874 -23.5874 -42.3317		
14.6485 -24.6485 -24.0387		
-42.8154 32.8154 -27.1464		
36.2662 -46.2662 4.50253		
-8.39908 -1.60092 -43.2358		
24.2688 -34.2688 12.1383		
0.340581 -10.3406 -33.7851		
18.4902 -28.4902 14.363		
-28.83 18.83 -33.656		
1.28707 -11.2871 9.87708		
4.34876 -14.3488 -9.34538		
17.7568 -27.7568 -35.3771		
-30.8135 20.8135 13.457		
49.5858 -59.5858 -13.9266		
-15.6881 5.68807 -41.51		
37.8826 -47.8826 -35.3206		
26.2586 -36.2586 21.5522		
-32.1428 22.1428 -37.6013		
-16.523 6.52305 45.3403		
19.4105 -29.4105 -27.4928		
-40.6498 30.6498 42.0864		
-44.431 34.431 -16.6458		
43.0475 -53.0475 21.4865		
49.8422 -59.8422 -27.4446		
36.3045 -46.3045 29.4536		
41.1358 -51.1358 -32.4969		
28.3291 -38.3291 -36.0143		
-3.61897 -6.38103 25.0675		
-26.4445 16.4445 25.2028		
-9.25854 -0.741455 -47.3608		
-31.6852 21.6852 23.3836		
-13.6343 3.63428 49.794		
-20.7153 10.7153 19.659		
46.5644 -56.5644 46.4553		
46.2906 -56.2906 34.3594		
-40.0301 30.0301 24.0314		
-13.6467 3.64666 33.3869		
-33.7121 23.7121 15.1925		
-42.6582 32.6582 -20.9204		
8.6385 -18.6385 17.7741		
-48.3895 38.3895 -13.7734		
45.8903 -55.8903 29.0833		
45.1231 -55.1231 -21.7305		
-8.86542 -1.13458 9.98375		
3.02876 -13.0288 -12.4079		
32.471 -42.471 28.8428		
-5.85815 -4.14185 -12.155		
-11.6959 1.69594 -1.4826		
-24.5815 14.5815 -39.8481		
-49.3877 39.3877 49.019		
38.1652 -48.1652 -9.16018		
36.8484 -46.8484 -42.4568		
-36.7577 26.7577 13.8912		
-40.8329 30.8329 17.9851		
-46.4517 36.4517 5.48577		
-39.4211 29.4211 28.3344		
-2.53617 -7.46383 19.9098		
31.3529 -41.3529 13.0307		
22.1772 -32.1772 -41.7415		
22.841 -32.841 -44.0315		
-28.8409 18.8409 -12.3899		
28.5558 -38.5558 -40.3301		
17.3303 -27.3303 41.8562		
-32.554 22.554 -39.354		
-41.3811 31.3811 37.7964		
-31.0445 21.0445 -0.80839		
32.8243 -42.8243 -7.22708		
25.2293 -35.2293 -8.45315		
14.4869 -24.4869 34.1619		
43.3933 -53.3933 -16.0655		
21.4089 -31.4089 -11.6222		
33.2991 -43.2991 42.1029		
-28.4868 18.4868 10.0369		
38.8176 -48.8176 47.303		
35.7045 -45.7045 18.2067		
11.1311 -21.1311 -29.332		
-34.9212 24.9212 46.0547		
49.1662 -59.1662 -15.9172		
-49.4708 39.4708 -39.9959		
-0.685992 -9.31401 -41.0218		
49.8636 -59.8636 12.374		
13.668 -23.668 31.5756		
21.2525 -31.2525 22.3864		
43.6221 -53.6221 -32.6703		
-23.3329 13.3329 49.1021		
-23.5237 13.5237 -27.3917		
12.9121 -22.9121 -46.8854		
-8.34 -1.66 45.4855		
32.6657 -42.6657 13.773		
-19.2139 9.21388 -41.5857		
42.5483 -52.5483 22.7102		
-12.8218 2.82183 22.9115		
-30.9865 20.9865 -34.9421		
-6.26351 -3.73649 1.58093		
-29.7666 19.7666 -6.5649		
14.9645 -24.9645 -39.6321		
0.680198 -10.6802 -25.8307		
16.925 -26.925 41.2215		
-12.7023 2.70234 6.35169		
4.12951 -14.1295 38.3289		
32.5125 -42.5125 -46.6229		
-14.4179 4.41786 -37.8348		
18.7436 -28.7436 -15.0733		
-41.8573 31.8573 -26.2526		
-7.23016 -2.76984 10.5279		
42.7396 -52.7396 -21.7571		
48.5404 -58.5404 47.4347		
-45.176 35.176 34.0713		
-36.3305 26.3305 33.6616		
-12.0873 2.0873 -0.983608		
-43.0226 33.0226 38.433		
0.516163 -10.5162 33.6131		
40.9881 -50.9881 -19.4871		
18.7883 -28.7883 -45.4133		
-36.7023 26.7023 24.9288		
-29.3625 19.3625 -41.2603		
-35.0593 25.0593 -9.25902		
44.3211 -54.3211 -6.67378		
-16.5844 6.58441 0.0669502		
-13.7017 3.70172 -33.6753		
8.48269 -18.4827 19.1786		
-49.4979 39.4979 -44.8433		
39.6336 -49.6336 6.93168		
3.25832 -13.2583 -37.3798		
37.6719 -47.6719 -11.6669		
47.8795 -57.8795 -45.459		
-37.8195 27.8195 30.1667		
-10.9007 0.900713 28.1564		
-22.7671 12.7671 2.98118		
-24.7472 14.7472 46.1647		
-19.8877 9.8877 -30.7073		
-46.5376 36.5376 -30.4657		
-42.7435 32.7435 47.8115		
-21.3461 11.3461 8.93921		
2.15653 -12.1565 -32.4492		
-24.4061 14.4061 31.1316		
40.1016 -50.1016 -35.5322		
-8.49687 -1.50313 39.4817		
-47.7795 37.7795 12.1176		
0.462403 -10.4624 -48.876		
21.6129 -31.6129 33.6411		
20.1606 -30.1606 -16.5788		
45.5667 -55.5667 -31.8869		
13.5074 -23.5074 23.9268		
9.0932 -19.0932 35.3853		
-36.8167 26.8167 -11.3384		
4.79939 -14.7994 39.1529		
-19.4487 9.4487 16.3714		
-46.6916 36.6916 -29.1162		
-12.6188 2.61877 -22.5009		
42.5455 -52.5455 17.9971		
-46.0265 36.0265 44.1486		
-4.72212 -5.27788 35.8685		
41.161 -51.161 -40.0696		
-25.9112 15.9112 24.1803		
-2.56894 -7.43106 -46.3878		
9.49785 -19.4979 -28.6296		
1.4475 -11.4475 -10.2051		
-36.3746 26.3746 8.59983		
18.0918 -28.0918 -24.5922		
-48.4367 38.4367 -40.0169		
22.0457 -32.0457 46.0179		
-26.1747 16.1747 4.46591		
-11.3706 1.37059 -0.114439		
-46.7011 36.7011 -32.3485		
39.569 -49.569 35.0387		
-14.4773 4.47735 28.2703		
34.305 -44.305 13.8917		
21.8551 -31.8551 45.6816		
44.9307 -54.9307 23.1489		
6.91046 -16.9105 12.6296		
-41.145 31.145 41.7897		
-5.64332 -4.35668 -45.3588		
19.8709 -29.8709 1.76862		
-22.0314 12.0314 -30.2569		
-17.29 7.28999 5.26233		
25.8488 -35.8488 -14.8466		
48.337 -58.337 48.1772		
17.4621 -27.4621 31.9217		
44.8963 -54.8963 -21.1498		
-7.08649 -2.91351 -35.0707		
-3.54007 -6.45993 27.821		
-39.1079 29.1079 39.2873		
-7.03073 -2.96927 41.8362		
12.8763 -22.8763 38.0409		
7.45229 -17.4523 45.0157		
-13.939 3.93896 -35.1357		
-21.614 11.614 9.62003		
16.7621 -26.7621 -14.5335		
35.416 -45.416 -15.6221		
-49.7711 39.7711 29.9701		
-4.60364 -5.39636 29.3805		
7.77169 -17.7717 -31.7269		
-35.7448 25.7448 22.1811		
19.0503 -29.0503 49.7817		
-22.3012 12.3012 46.2921		
-7.48126 -2.51874 37.3508		
-8.58055 -1.41945 36.346		
-22.3979 12.3979 12.2813		
14.054 -24.054 12.8386		
39.3729 -49.3729 -37.8869		
-2.56435 -7.43565 16.2033		
-0.20138 -9.79862 8.9476		
7.55583 -17.5558 -38.2511		
9.054 -19.054 -10.3904		
-38.0019 28.0019 -20.4762		
16.0252 -26.0252 38.9269		
25.8837 -35.8837 -36.2351		
14.7936 -24.7936 43.7271		
-38.6993 28.6993 -0.00928173		
42.7685 -52.7685 -24.957		
-21.1376 11.1376 -19.1393		
-25.9444 15.9444 11.0762		
46.5927 -56.5927 30.3514		
-42.9419 32.9419 27.127		
5.92678 -15.9268 14.1343		
-28.8199 18.8199 8.37182		
23.6548 -33.6548 -48.0963		
20.7002 -30.7002 20.5228		
-38.5497 28.5497 41.7466		
13.8026 -23.8026 -2.17744		
-0.458992 -9.54101 7.86574		
-4.88143 -5.11857 -16.7462		
10.6417 -20.6417 -29.7962		
-49.2833 39.2833 10.6258		
23.0789 -33.0789 -26.2448		
-16.1769 6.17692 30.1827		
7.62069 -17.6207 44.2559		
-29.0897 19.0897 -46.739		
-41.4928 31.4928 13.4025		
23.4557 -33.4557 -32.0227		
20.2544 -30.2544 -15.8472		
17.6372 -27.6372 -13.9501		
-1.07888 -8.92112 49.4503		
15.4057 -25.4057 -40.8658		
7.23999 -17.24 -40.2095		
26.2312 -36.2312 -39.0011		
-30.2008 20.2008 -31.0204		
8.76333 -18.7633 21.7295		
-37.6569 27.6569 28.1668		
12.9328 -22.9328 11.6733		
-22.5619 12.5619 -36.1296		
40.8188 -50.8188 38.0508		
18.7961 -28.7961 22.8766		
-29.4585 19.4585 -9.99592		
-43.1219 33.1219 -8.78987		
-30.8057 20.8057 41.7819		
7.02273 -17.0227 -34.729		
-30.4127 20.4127 -13.0702		
32.4849 -42.4849 17.9706		
44.5501 -54.5501 -6.80871		
-21.7675 11.7675 37.0805		
46.9658 -56.9658 -3.31035		
-48.3081 38.3081 -15.3911		
-47.2174 37.2174 -44.1446		
-5.27855 -4.72145 39.7669		
-6.12976 -49.1397 39.1397		
-9.55053 -39.5882 29.5882		
-21.6242 21.2864 -31.2864		
30.7737 -6.95893 -3.04107		
-28.6952 18.1142 -28.1142		
48.1789 8.18223 -18.1822		
39.3635 -14.7084 4.70843		
-36.1765 -33.4913 23.4913		
-12.3604 43.5246 -53.5246		
17.2898 -17.0931 7.09308		
13.8179 -41.771 31.771		
32.3718 -13.8286 3.82864		
-33.4374 -19.6203 9.62033		
4.95098 27.56 -37.56		
36.1809 21.5233 -31.5233		
-19.8901 -48.2485 38.2485		
-11.2102 29.4655 -39.4655		
4.41129 -15.3099 5.30993		
0.342022 36.2079 -46.2079		
3.0535 27.3569 -37.3569		
-46.1907 -39.5509 29.5509		
39.1337 0.187534 -10.1875		
-32.4629 14.2315 -24.2315		
-25.5707 20.1358 -30.1358		
-8.99327 -0.0550168 -9.94498		
32.5985 -39.3939 29.3939		
-41.4147 46.9206 -56.9206		
24.3422 28.2103 -38.2103		
39.8429 19.9229 -29.9229		
-21.8403 3.40066 -13.4007		
-13.3722 7.71732 -17.7173		
-44.0963 26.7058 -36.7058		
49.1833 18.9964 -28.9964		
-16.0065 30.3566 -40.3566		
-45.7095 31.1335 -41.1335		
40.932 3.81845 -13.8184		
41.01 20.2913 -30.2913		
-38.3697 -37.5925 27.5925		
-19.6601 32.2136 -42.2136		
-40.9984 -26.9171 16.9171		
6.06708 -10.3676 0.367601		
-35.0878 -19.2345 9.23449		
27.4489 46.3595 -56.3595		
8.08254 13.6743 -23.6743		
-49.9699 19.8021 -29.8021		
38.0181 -7.12033 -2.87967		
-12.4426 -0.356978 -9.64302		
19.9587 26.1444 -36.1444		
19.6007 1.32781 -11.3278		
-20.3502 -6.11342 -3.88658		
9.30933 -31.3166 21.3166		
34.654 -20.0981 10.0981		
45.2113 -43.388 33.388		
48.8836 32.7785 -42.7785		
29.7625 -11.4438 1.44376		
-16.9183 15.9595 -25.9595		
4.16088 -23.8031 13.8031		
31.7294 -36.2033 26.2033		
-35.8578 1.34595 -11.3459		
-12.8852 7.4947 -17.4947		
-12.0934 -44.097 34.097		
-33.3735 4.87789 -14.8779		
-47.1423 13.8019 -23.8019		
-23.6995 -9.12305 -0.876949		
16.009 43.0656 -53.0656		
-0.274608 20.9194 -30.9194		
35.1952 13.007 -23.007		
-29.8836 -35.2108 25.2108		
-11.5331 38.8256 -48.8256		
-40.8478 -40.1155 30.1155		
43.1385 -47.7947 37.7947		
30.7715 6.11494 -16.1149		
-30.5075 2.94227 -12.9423		
13.818 38.1934 -48.1934		
-27.1911 -25.7486 15.7486		
4.85677 -32.4374 22.4374		
-0.573252 4.5597 -14.5597		
49.0832 7.89019 -17.8902		
49.4478 11.4717 -21.4717		
-35.272 -20.7357 10.7357		
-25.7301 -46.3616 36.3616		
-36.3655 -32.4719 22.4719		
-49.0073 23.5491 -33.5491		
1.90122 44.6019 -54.6019		
24.8937 45.9986 -55.9986		
2.09826 38.5774 -48.5774		
3.40722 -42.9312 32.9312		
14.3599 -1.68953 -8.31047		
-47.1024 -33.6182 23.6182		
-31.0102 -9.57537 -0.424625		
-14.1911 -48.3192 38.3192		
29.9958 18.8175 -28.8175		
-12.9429 -27.5657 17.5657		
-12.1925 -43.7284 33.7284		
-3.21547 23.411 -33.411		
-34.4717 -0.586739 -9.41326		
-29.6285 -1.60777 -8.39223		
17.8092 47.5614 -57.5614		
-46.6277 -7.18928 -2.81072		
39.5694 43.8102 -53.8102		
-15.0874 -41.5646 31.5646		
20.0419 -25.5533 15.5533		
-36.1791 23.861 -33.861		
0.462539 -26.6881 16.6881		
-6.68355 -8.38052 -1.61948		
16.5444 7.21606 -17.2161		
-32.911 -33.3734 23.3734		
38.9339 -27.433 17.433		
33.7108 41.6946 -51.6946		
43.6834 4.55753 -14.5575		
14.5283 -43.0744 33.0744		
18.5987 -19.2442 9.24417		
30.5258 18.3868 -28.3868		
2.80695 -19.5623 9.56234		
-2.2151 49.5435 -59.5435		
-23.0742 19.9202 -29.9202		
40.7264 36.1566 -46.1566		
-22.0858 -34.6683 24.6683		
-35.0711 -4.68217 -5.31783		
-13.0468 44.2019 -54.2019		
12.5764 13.4753 -23.4753		
9.36894 15.8697 -25.8697		
28.2509 38.1315 -48.1315		
-5.16005 -5.36599 -4.63401		
49.3567 49.6154 -59.6154		
14.8904 -2.03853 -7.96147		
-49.5678 31.7143 -41.7143		
-0.156886 5.14334 -15.1433		
-9.93393 46.3148 -56.3148		
29.0914 15.4089 -25.4089		
40.5243 34.3131 -44.3131		
10.5883 -1.69004 -8.30996		
-18.3741 -9.60091 -0.399091		
42.7339 30.3469 -40.3469		
21.9727 -49.0673 39.0673		
36.801 -4.91163 -5.08837		
-39.3011 -24.1298 14.1298		
-25.5582 -3.84112 -6.15888		
-29.3813 44.6614 -54.6614		
-42.2187 6.01354 -16.0135		
32.7534 -19.7467 9.74675		
-15.7724 -2.74489 -7.25511		
26.9827 -36.8604 26.8604		
22.5184 44.5799 -54.5799		
-37.6637 43.7584 -53.7584		
-19.1966 -19.7413 9.74128		
-41.2187 17.4843 -27.4843		
8.49958 7.28273 -17.2827		
8.13397 -45.0796 35.0796		
49.5446 19.0688 -29.0688		
-17.8563 22.0223 -32.0223		
-31.9029 19.3292 -29.3292		
38.5205 8.4408 -18.4408		
29.5227 -1.05999 -8.94001		
34.822 39.233 -49.233		
-38.2377 -32.8996 22.8996		
-47.3818 27.5706 -37.5706		
3.38118 1.19309 -11.1931		
-4.0585 -1.39719 -8.60281		
20.829 -33.411 23.411		
19.0666 -13.8883 3.88833		
-34.1242 -4.79476 -5.20524		
-29.6117 -4.27576 -5.72424		
46.0815 -43.3245 33.3245		
-38.1863 46.8005 -56.8005		
-34.6959 -47.8549 37.8549		
-43.4455 -36.5018 26.5018		
24.6533 -46.0956 36.0956		
27.3009 -44.7976 34.7976		
37.5539 -22.5428 12.5428		
-6.95465 14.1947 -24.1947		
3.79627 1.391 -11.391		
-18.5721 10.7528 -20.7528		
-20.9651 5.46057 -15.4606		
45.9451 17.0349 -27.0349		
-23.3655 47.6164 -57.6164		
47.3332 30.0406 -40.0406		
34.8708 31.3155 -41.3155		
9.32038 -38.9784 28.9784		
30.8025 -46.7862 36.7862		
-13.8011 11.7006 -21.7006		
4.26394 3.46526 -13.4653		
-36.0926 49.5026 -59.5026		
33.376 -6.52137 -3.47863		
19.5461 -13.2284 3.22838		
-10.8635 -41.4942 31.4942		
38.2137 12.7956 -22.7956		
-3.85933 30.8869 -40.8869		
21.4151 39.4305 -49.4305		
49.582 36.0548 -46.0548		
5.47047 23.0047 -33.0047		
-10.4387 -48.3866 38.3866		
0.965388 -17.63 7.63005		
-29.3597 -19.5364 9.53635		
37.5883 -28.704 18.704		
-17.4281 9.35801 -19.358		
42.6788 36.6988 -46.6988		
-0.9982 -8.45856 -1.54144		
-10.0761 -32.9854 22.9854		
10.5482 2.36157 -12.3616		
-30.0468 15.2746 -25.2746		
-25.2219 21.3873 -31.3873		
-43.6894 30.7639 -40.7639		
5.08622 34.3731 -44.3731		
5.25994 -15.9323 5.93228		
12.2576 -35.7827 25.7827		
-39.9944 -27.3052 17.3052		
-34.2691 38.8885 -48.8885		
30.6998 -43.3548 33.3548		
45.515 -2.79096 -7.20904		
-12.2542 10.1503 -20.1503		
43.2272 33.792 -43.792		
-46.2815 -38.3345 28.3345		
-40.2527 -32.1851 22.1851		
-11.9266 -22.5452 12.5452		
-26.4072 23.1448 -33.1448		
31.9418 -31.5868 21.5868		
-38.8192 42.6544 -52.6544		
1.29162 36.6042 -46.6042		
-28.967 25.5112 -35.5112		
-12.5705 -35.9901 25.9901		
-38.2007 -37.5073 27.5073		
38.7852 15.0586 -25.0586		
-13.2904 7.46699 -17.467		
42.44 -29.2274 19.2274		
18.5338 -33.6017 23.6017		
-4.2396 -0.133992 -9.86601		
-13.195 15.5321 -25.5321		
18.5025 48.6691 -58.6691		
-21.4236 -49.6597 39.6597		
-20.9584 26.5337 -36.5337		
-18.8253 -6.39801 -3.60199		
8.15684 39.0845 -49.0845		
-10.9174 -21.4621 11.4621		
26.7467 -44.1382 34.1382		
-2.60229 -37.9266 27.9266		
48.6941 23.2558 -33.2558		
-22.5093 -39.0832 29.0832		
-39.3663 -39.3008 29.3008		
-39.9453 10.5263 -20.5263		
30.0381 44.0375 -54.0375		
48.1148 -15.7406 5.74056		
32.1643 40.8772 -50.8772		
7.09243 -36.7404 26.7404		
31.791 6.33932 -16.3393		
-2.44274 30.6542 -40.6542		
6.56035 -30.9183 20.9183		
21.0472 -49.2919 39.2919		
-17.0303 -24.4694 14.4694		
49.6675 -43.766 33.766		
26.2478 20.6963 -30.6963		
-41.78 -2.12578 -7.87422		
-40.5534 46.752 -56.752		
22.0457 29.2668 -39.2668		
13.9818 19.6029 -29.6029		
-46.4808 -1.42462 -8.57538		
-1.65186 -14.2033 4.20328		
-17.6041 7.09031 -17.0903		
20.85 -16.4719 6.47187		
-38.589 14.7739 -24.7739		
8.98054 -40.3795 30.3795		
-15.1805 -33.1991 23.1991		
-38.2416 47.2651 -57.2651		
-47.0791 18.4297 -28.4297		
-37.6789 0.118784 -10.1188		
-45.1968 0.484332 -10.4843		
-16.0484 -30.8897 20.8897		
18.7886 -29.3439 19.3439		
13.1146 30.0021 -40.0021		
-0.0872339 -27.6582 17.6582		
38.4438 -29.784 19.784		
-19.4942 -44.8871 34.8871		
39.034 37.2611 -47.2611		
35.3169 -27.7817 17.7817		
-36.9601 -1.57235 -8.42765		
21.4367 14.1905 -24.1905		
-45.2279 46.8351 -56.8351		
-38.3575 8.89457 -18.8946		
-49.989 14.0505 -24.0505		
46.3946 15.085 -25.085		
2.35483 2.78093 -12.7809		
-38.6356 45.76 -55.76		
-39.7129 3.17736 -13.1774		
-18.3037 0.925778 -10.9258		
-24.4264 35.5236 -45.5236		
8.46845 43.3826 -53.3826		
43.7736 31.3062 -41.3062		
26.1207 25.9233 -35.9233		
11.2738 44.5413 -54.5413		
25.0508 21.6784 -31.6784		
-6.74306 -40.3985 30.3985		
17.6597 -48.3579 38.3579		
-25.4297 16.5647 -26.5647		
5.70819 8.69972 -18.6997		
43.5528 25.0441 -35.0441		
5.99193 -17.9231 7.92308		
26.1568 49.5432 -59.5432		
-43.9047 -25.4283 15.4283		
-35.6489 24.7317 -34.7317		
-38.9411 -45.0512 35.0512		
-36.3258 -3.20919 -6.79081		
31.2486 -26.8918 16.8918		
-3.2448 13.1315 -23.1315		
-25.0557 -16.4988 6.49883		
-5.5234 -31.6193 21.6193		
-43.2609 -24.962 14.962		
-18.7547 34.0995 -44.0995		
-18.4974 -5.31879 -4.68121		
37.9469 39.7723 -49.7723		
15.0799 36.6415 -46.6415		
-36.4117 42.6619 -52.6619		
-39.9189 -6.53003 -3.46997		
-14.8512 35.6677 -45.6677		
29.3117 -4.09264 -5.90736		
15.6563 48.8588 -58.8588		
20.3127 -22.4093 12.4093		
27.4534 6.97044 -16.9704		
-9.64065 -13.1836 3.18359		
3.27859 -23.6131 13.6131		
43.314 5.87719 -15.8772		
13.5459 -2.47029 -7.52971		
-20.8089 15.8495 -25.8495		
19.7144 -0.590526 -9.40947		
-47.5368 -27.9406 17.9406		
-45.8777 48.1379 -58.1379		
-43.1347 -8.89348 -1.10652		
-14.6623 9.95789 -19.9579		
-19.8169 -29.377 19.377		
9.63588 -7.30304 -2.69696		
-31.77 -6.70801 -3.29199		
38.0723 -26.026 16.026		
-7.09483 -40.4011 30.4011		
-16.0916 27.0102 -37.0102		
-24.8586 -24.3658 14.3658		
28.2594 -19.6855 9.68546		
-38.4045 35.8888 -45.8888		
-8.70464 1.40087 -11.4009		
14.5435 23.5882 -33.5882		
36.6095 -22.7349 12.7349		
14.5329 42.1925 -52.1925		
45.8277 -17.1669 7.16691		
-31.1803 -9.68329 -0.316714		
-26.0633 8.46417 -18.4642		
19.3459 42.2652 -52.2652		
-20.9774 24.7955 -34.7955		
40.2586 -36.3414 26.3414		
39.8971 -16.2375 6.23753		
11.4522 -41.6964 31.6964		
18.1614 -16.3497 6.34971		
2.66724 31.7794 -41.7794		
-44.8802 -20.5202 10.5202		
15.8633 46.6706 -56.6706		
34.4711 11.297 -21.297		
-10.2208 33.1799 -43.1799		
-37.0139 -45.4854 35.4854		
31.5391 44.257 -54.257		
49.1426 -22.1227 12.1227		
43.1282 -25.1799 15.1799		
43.8481 -29.4541 19.4541		
27.3667 8.36822 -18.3682		
47.0129 20.2241 -30.2241		
16.5246 -17.555 7.55505		
-19.1266 -15.7433 5.74333		
26.7036 -37.1516 27.1516		
4.87869 24.3173 -34.3173		
40.8884 -2.15205 -7.84795		
-5.72302 22.8956 -32.8956		
-30.6734 39.2959 -49.2959		
-1.66879 48.362 -58.362		
41.0235 46.7999 -56.7999		
-34.0113 9.02079 -19.0208		
25.3325 -17.3114 7.31145		
-3.40019 11.2298 -21.2298		
33.4311 33.7296 -43.7296		
-26.5906 18.8038 -28.8038		
-37.1026 -28.1325 18.1325		
49.5089 29.3455 -39.3455		
-46.9472 -45.0425 35.0425		
-39.4786 36.677 -46.677		
-42.8285 12.1798 -22.1798		
-3.9696 11.0299 -21.0299		
45.4125 47.6407 -57.6407		
20.8471 -49.4727 39.4727		
28.4524 27.7841 -37.7841		
46.6122 28.1234 -38.1234		
-11.7719 -49.7763 39.7763		
41.756 -29.7588 19.7588		
16.7895 -14.9192 4.91921		
-18.6729 -27.7312 17.7312		
40.387 47.7312 -57.7312		
-20.0185 41.2149 -51.2149		
-0.154205 -39.7339 29.7339		
-40.0694 47.6219 -57.6219		
28.4717 -3.30414 -6.69586		
-15.8302 -9.84611 -0.153894		
-34.6085 22.1567 -32.1567		
39.1769 21.645 -31.645		
16.9396 28.1696 -38.1696		
-8.8181 -3.98164 -6.01836		
44.4541 -18.4811 8.48106		
34.9026 -39.4748 29.4748		
-15.0937 25.9418 -35.9418		
-32.4902 48.1696 -58.1696		
36.0155 31.9639 -41.9639		
-31.0632 11.3677 -21.3677		
-17.2645 32.8562 -42.8562		
38.2114 -45.3893 35.3893		
18.4837 14.139 -24.139		
-24.8749 -31.1913 21.1913		
-43.9509 -33.0556 23.0556		
-1.49234 -13.9627 3.96267		
15.2184 23.5058 -33.5058		
27.2216 -22.9424 12.9424		
-45.7919 -48.6967 38.6967		
-8.64937 -1.98225 -8.01775		
-23.8742 -14.862 4.86203		
-43.9014 36.2734 -46.2734		
-13.0564 15.8444 -25.8444		
48.4236 38.2145 -48.2145		
6.35849 -33.7031 23.7031		
-35.9048 -13.0324 3.03241		
-35.5731 -2.62849 -7.37151		
-27.7364 26.8727 -36.8727		
-44.7303 -36.0215 26.0215		
-22.6372 -26.7934 16.7934		
-27.9507 45.9784 -55.9784		
41.3628 -46.8757 36.8757		
-41.6691 12.6673 -22.6673		
-21.0524 -32.9788 22.9788		
-37.2039 -5.82812 -4.17188		
-0.423507 -12.8342 2.83416		
-21.9584 5.29692 -15.2969		
-18.247 20.7075 -30.7075		
-47.9495 36.822 -46.822		
-9.32818 4.79762 -14.7976		
16.3225 20.6009 -30.6009		
4.17763 19.4373 -29.4373		
-19.2705 41.082 -51.082		
45.4838 -10.2878 0.287823		
18.7768 21.3666 -31.3666		
15.2506 49.6534 -59.6534		
-4.98487 26.537 -36.537		
44.0056 -43.0757 33.0757		
-8.72022 5.01135 -15.0113		
-11.361 -20.0802 10.0802		
-41.8652 22.7654 -32.7654		
-7.75908 -30.5133 20.5133		
0.138191 -18.4928 8.49282		
-46.2375 -10.2479 0.24792		
49.6882 1.55131 -11.5513		
-9.3219 -18.1205 8.12051		
-49.1002 38.7591 -48.7591		
-30.3567 2.13142 -12.1314		
-41.906 -3.445 -6.555		
-33.5116 -0.323187 -9.67681		
17.4007 23.3476 -33.3476		
-44.2924 34.145 -44.145		
-8.72478 -33.7747 23.7747		
-24.0037 -1.14704 -8.85296		
-37.2258 -32.9219 22.9219		
31.211 -2.62433 -7.37567		
-32.0563 46.9805 -56.9805		
-33.3229 3.94366 -13.9437		
2.47633 26.4597 -36.4597		
38.7665 15.2445 -25.2445		
-27.6911 33.9893 -43.9893		
2.46143 35.7796 -45.7796		
4.4596 -13.6996 3.69961		
32.6614 -49.2902 39.2902		
-27.7522 27.9836 -37.9836		
-37.8577 22.0169 -32.0169		
-12.7817 32.2734 -42.2734		
6.15065 -20.9926 10.9926		
-41.0162 -10.4581 0.458061		
39.5741 30.1877 -40.1877		
-40.9648 49.8665 -59.8665		
-37.9616 30.9873 -40.9873		
-31.8773 -28.8558 18.8558		
-34.7299 19.2926 -29.2926		
-39.8639 14.8677 -24.8677		
-45.1615 -33.2287 23.2287		
31.1521 23.5444 -33.5444		
-19.1766 28.4159 -38.4159		
39.077 -17.5078 7.50781		
-31.5968 15.3304 -25.3304		
-32.4679 -4.30649 -5.69351		
-40.0124 26.9134 -36.9134		
2.24464 0.281923 -10.2819		
-20.113 7.99717 -17.9972		
-26.9408 -20.0521 10.0521		
38.9746 19.4386 -29.4386		
47.5442 -4.75518 -5.24482		
-30.6169 -31.7978 21.7978		
22.9786 10.0369 -20.0369		
12.6664 12.7025 -22.7025		
-40.1323 2.74785 -12.7478		
-27.6405 -6.99746 -3.00254		
26.7903 27.2539 -37.2539		
18.3735 16.7138 -26.7138		
3.43837 38.2581 -48.2581		
-8.4011 43.3023 -53.3023		
45.1012 -36.4181 26.4181		
23.81 18.6387 -28.6387		
-4.38945 -38.9683 28.9683		
13.4209 -46.0936 36.0936		
-14.0764 10.2736 -20.2736		
30.8307 -38.3187 28.3187		
13.2848 -12.9142 2.91421		
1.03485 3.22814 -13.2281		
14.5742 37.6413 -47.6413		
4.87938 -4.51726 -5.48274		
47.552 -13.8584 3.85835		
31.9084 -34.8718 24.8718		
-31.3225 -15.7603 5.76027		
-7.72501 47.7597 -57.7597		
-47.9403 -8.2129 -1.7871		
-39.3243 35.0805 -45.0805		
47.5854 -9.75692 -0.243079		
-49.1175 -20.3569 10.3569		
15.6282 -6.95912 -3.04088		
17.5103 6.11386 -16.1139		
38.592 -39.7936 29.7936		
22.6322 -5.99324 -4.00676		
-32.2625 -36.7823 26.7823		
-40.2099 16.5744 -26.5744		
-46.5085 -49.1153 39.1153		
-27.4186 -29.9919 19.9919		
23.1556 -3.46669 -6.53331		
-35.308 -48.2313 38.2313		
42.0342 41.0554 -51.0554		
-47.1541 39.4217 -49.4217		
2.91918 -5.94753 -4.05247		
1.48737 16.5365 -26.5365		
35.9732 -31.7791 21.7791		
13.0611 41.5854 -51.5854		
-43.3963 -43.1553 33.1553		
29.3853 16.1463 -26.1463		
16.1465 29.3849 -39.3849		
3.88365 -27.9029 17.9029		
-25.7851 -26.6307 16.6307		
25.3047 30.6372 -40.6372		
-34.9567 -4.64488 -5.35512		
-19.7438 6.17679 -16.1768		
8.67884 8.14213 -18.1421		
-5.56827 44.9606 -54.9606		
-19.5929 30.5944 -40.5944		
-8.23443 48.2781 -58.2781		
43.1898 -32.4027 22.4027		
-37.0426 -48.2132 38.2132		
-22.7167 42.2057 -52.2057		
19.4802 17.9682 -27.9682		
13.5767 9.218 -19.218		
-3.31764 12.0843 -22.0843		
-26.8372 -10.8263 0.826335		
19.7516 -17.6605 7.66046		
-43.9193 -46.8672 36.8672		
10.1924 27.6156 -37.6156		
30.7616 -6.42701 -3.57299		
-30.7448 -6.19779 -3.80221		
37.3887 -14.8329 4.83288		
-17.8249 -3.06322 -6.93678		
-33.68 43.4609 -53.4609		
43.3016 47.281 -57.281		
10.1059 39.4896 -49.4896		
-31.7575 -9.01642 -0.983583		
30.1888 42.8105 -52.8105		
-44.3381 -42.2631 32.2631		
-23.8752 32.6034 -42.6034		
41.6815 37.2921 -47.2921		
41.5467 37.1642 -47.1642		
-5.48532 2.38753 -12.3875		
-27.2022 13.504 -23.504		
2.01789 32.191 -42.191		
48.527 -5.03427 -4.96573		
13.8178 -4.09897 -5.90103		
-40.1043 -28.2962 18.2962		
-25.9601 -27.2929 17.2929		
22.0341 20.0455 -30.0455		
-11.6053 -25.8942 15.8942		
-41.3223 -5.83363 -4.16637		
39.0805 14.7553 -24.7553		
9.82656 14.5611 -24.5611		
-0.513116 44.4423 -54.4423		
-1.44492 13.2351 -23.2351		
28.8271 27.97 -37.97		
-18.092 -12.6952 2.69522		
-36.3324 12.0323 -22.0323		
-2.81215 0.470534 -10.4705		
-12.2488 7.05128 -17.0513		
39.1385 30.2306 -40.2306		
27.915 3.48136 -13.4814		
-6.29427 25.9131 -35.9131		
33.4882 -32.1239 22.1239		
18.2658 -8.66237 -1.33763		
12.4254 -35.5108 25.5108		
-43.1871 -17.8956 7.8956		
42.0343 -9.92681 -0.0731909		
22.3275 -35.9618 25.9618		
7.24132 -39.9113 29.9113		
6.24483 -48.0322 38.0322		
43.6501 44.1217 -54.1217		
-18.1905 40.2295 -50.2295		
48.928 21.1914 -31.1914		
43.4702 -19.3195 9.31954		
37.1344 -3.23083 -6.76917		
22.8487 -15.0623 5.06225		
-49.0498 41.2845 -51.2845		
-30.0529 12.4577 -22.4577		
42.3292 12.2765 -22.2765		
25.1051 42.9974 -52.9974		
28.011 22.3641 -32.3641		
11.9797 42.0708 -52.0708		
-8.50067 1.74735 -11.7473		
-41.8863 23.4469 -33.4469		
-29.1296 0.768727 -10.7687		
41.3008 49.1606 -59.1606		
1.24253 49.2857 -59.2857		
-34.1444 -8.1197 -1.8803		
4.75018 25.8584 -35.8584		
-8.26087 -22.4847 12.4847		
-49.6562 -26.1922 16.1922		
-8.60113 -34.5155 24.5155		
13.2531 44.4252 -54.4252		
12.3121 -5.82996 -4.17004		
30.8564 0.32385 -10.3238		
0.333176 -26.6148 16.6148		
-11.0977 -5.9935 -4.0065		
-42.8764 19.097 -29.097		
30.4886 23.4322 -33.4322		
-5.94577 -30.5214 20.5214		
-47.6095 -7.11272 -2.88728		
9.78544 -24.1215 14.1215		
37.896 32.5262 -42.5262		
-46.234 49.3143 -59.3143		
-39.7219 -28.7145 18.7145		
-8.48652 17.3706 -27.3706		
-48.6442 -32.1235 22.1235		
39.8941 -30.6793 20.6793		
42.2444 38.9886 -48.9886		
-38.0551 -26.7762 16.7762		
25.2938 -42.4317 32.4317		
-10.2026 7.85589 -17.8559		
-39.0919 -29.4881 19.4881		
-22.6186 -43.7993 33.7993		
44.9599 1.94373 -11.9437		
-26.4961 28.5637 -38.5637		
-32.8917 47.9101 -57.9101		
36.709 16.718 -26.718		
-22.8097 -33.7381 23.7381		
-38.043 16.2886 -26.2886		
31.9521 47.0497 -57.0497		
5.14019 21.8642 -31.8642		
5.93003 16.5142 -26.5142		
47.5803 -7.5117 -2.4883		
40.8279 21.7914 -31.7914		
-46.2214 -32.0919 22.0919		
26.2389 38.135 -48.135		
-48.2223 -25.1542 15.1542		
-19.821 41.4752 -51.4752		
10.6644 27.8882 -37.8882		
-5.59191 44.6798 -54.6798		
-49.9092 25.0474 -35.0474		
33.375 -41.4884 31.4884		
-8.55674 28.7535 -38.7535		
16.7839 1.09258 -11.0926		
45.5176 -16.5465 6.54648		
-20.4684 45.5325 -55.5325		
-28.2468 16.0727 -26.0727		
38.8256 -29.6741 19.6741		
-2.27445 0.599354 -10.5994		
-32.768 8.87165 -18.8717		
17.9239 4.93743 -14.9374		
37.9945 8.35842 -18.3584		
39.6481 -47.7526 37.7526		
-36.4293 37.8843 -47.8843		
-35.2004 8.45739 -18.4574		
-47.0788 33.1791 -43.1791		
-26.5447 28.902 -38.902		
48.8386 -29.4931 19.4931		
-2.63365 36.5771 -46.5771		
9.69474 -5.0434 -4.9566		
-34.7533 -25.6296 15.6296		
13.1151 -1.54153 -8.45847		
47.5645 -24.594 14.594		
32.8682 -32.9537 22.9537		
9.33366 13.04 -23.04		
-5.74364 -9.82475 -0.175252		
3.89 -39.1625 29.1625		
-34.9911 -33.4781 23.4781		
28.2434 -16.6259 6.62589		
-17.4822 31.0259 -41.0259		
31.0025 -19.0466 9.04658		
-10.5177 46.8797 -56.8797		
5.60479 3.85041 -13.8504		
15.5527 -24.1026 14.1026		
-47.1059 -11.3736 1.37362		
43.5676 7.9069 -17.9069		
30.673 2.25473 -12.2547		
-36.5441 8.71134 -18.7113		
-48.7024 -45.1809 35.1809		
7.24385 21.3644 -31.3644		
38.8194 22.5046 -32.5046		
46.5026 14.7233 -24.7233		
48.6472 -3.39103 -6.60897		
17.0552 17.6472 -27.6472		
-12.2345 16.3997 -26.3997		
-46.6356 -46.1999 36.1999		
9.5161 13.6735 -23.6735		
20.4124 28.0765 -38.0765		
17.8095 34.2138 -44.2138		
-37.2946 -2.35321 -7.64679		
1.64973 38.8138 -48.8138		
-44.2978 1.10166 -11.1017		
-1.68834 47.4806 -57.4806		
-38.9003 -32.7422 22.7422		
-1.26253 21.254 -31.254		
-19.1071 -23.9147 13.9147		
-13.0474 3.65158 -13.6516		
-31.2269 -49.9216 39.9216		
-9.77812 -33.2303 23.2303		
40.6572 -45.1212 35.1212		
41.0325 36.484 -46.484		
-28.1078 36.3458 -46.3458		
-47.0352 -38.8347 28.8347		
-12.2247 2.65276 -12.6528		
-44.2921 21.8048 -31.8048		
25.0319 11.4413 -21.4413		
32.6884 41.102 -51.102		
41.2167 -15.4994 5.49944		
-19.5192 -33.598 23.598		
-23.2902 2.6758 -12.6758		
-27.9144 36.3214 -46.3214		
5.27348 14.033 -24.033		
20.4521 19.5108 -29.5108		
13.412 30.2854 -40.2854		
29.7679 25.6819 -35.6819		
8.39937 15.2049 -25.2049		
8.72758 7.5756 -17.5756		
27.0762 32.7711 -42.7711		
13.353 20.0864 -30.0864		
6.81926 -15.7933 5.79331		
47.0577 -2.43629 -7.56371		
-31.9879 -22.906 12.906		
15.6348 40.093 -50.093		
-16.7762 -23.1056 13.1056		
3.75511 -5.16256 -4.83744		
-33.8182 -26.7084 16.7084		
-41.9968 -10.221 0.221041		
26.5105 -12.0738 2.07375		
40.415 -17.3876 7.38755		
-31.8836 -1.64582 -8.35418		
-45.164 -31.4288 21.4288		
15.8778 -9.07406 -0.92594		
35.7004 27.2001 -37.2001		
11.072 -4.74305 -5.25695		
-40.3236 34.271 -44.271		
-43.0787 33.5197 -43.5197		
4.63057 23.7401 -33.7401		
23.4152 -26.0726 16.0726		
34.8209 16.1341 -26.1341		
-18.3347 -28.9872 18.9872		
49.2758 -0.831078 -9.16892		
-22.2887 44.8002 -54.8002		
11.1061 -37.7125 27.7125		
-7.88985 -45.5593 35.5593		
-23.9195 42.5045 -52.5045		
40.3727 13.9865 -23.9865		
0.402896 5.63937 -15.6394		
-37.3957 20.2611 -30.2611		
19.1273 43.556 -53.556		
7.96375 -36.4633 26.4633		
-3.89905 -34.9873 24.9873		
-27.2815 -36.3 26.3		
-46.9144 33.2451 -43.2451		
46.6883 -8.10175 -1.89825		
30.8619 -21.2998 11.2998		
-26.683 18.4736 -28.4736		
-6.68947 -6.12653 -3.87347		
47.0371 16.3292 -26.3292		
45.3058 -5.79096 -4.20904		
-24.7038 15.8393 -25.8393		
19.5127 -34.5846 24.5846		
-1.89281 38.938 -48.938		
-41.153 -20.9384 10.9384		
-37.8718 3.29994 -13.2999		
-7.79033 45.0666 -55.0666		
-32.7909 26.2372 -36.2372		
8.85756 8.69456 -18.6946		
-39.8314 -22.9328 12.9328		
-2.64769 14.2628 -24.2628		
0.707594 44.7827 -54.7827		
-40.9186 13.7593 -23.7593		
-40.0201 39.2136 -49.2136		
-36.0441 -4.89293 -5.10707		
13.1969 -44.6223 34.6223		
-31.8475 -19.5894 9.58938		
37.7324 16.8483 -26.8483		
14.7084 29.157 -39.157		
-43.5 -42.9623 32.9623		
17.2015 46.8755 -56.8755		
-37.1818 40.6383 -50.6383		
11.3145 11.7427 -21.7427		
18.87 20.4023 -30.4023		
46.431 0.717174 -10.7172		
-41.4556 22.3804 -32.3804		
39.2037 -24.0865 14.0865		
-17.3075 -34.9632 24.9632		
43.6797 -17.6957 7.69568		
29.3928 6.82075 -16.8208		
-13.2553 14.6947 -24.6947		
-30.1033 24.1279 -34.1279		
-46.8626 -19.4493 9.44932		
39.7318 47.1123 -57.1123		
4.16193 38.7572 -48.7572		
49.4216 25.5721 -35.5721		
-28.856 10.1555 -20.1555		
-31.3904 -25.7408 15.7408		
31.6521 -5.47219 -4.52781		
15.3981 23.0579 -33.0579		
-25.0252 15.4877 -25.4877		
-2.02067 -17.5472 7.54718		
14.6538 47.3898 -57.3898		
-18.3271 -15.7431 5.74312		
-12.5167 11.0166 -21.0166		
-46.5365 -24.7967 14.7967		
14.3326 -31.7654 21.7654		
-45.5934 32.5609 -42.5609		
-32.694 43.4595 -53.4595		
39.8064 43.0308 -53.0308		
27.3859 -13.3701 3.37014		
-28.4829 43.2355 -53.2355		
-23.8311 -34.724 24.724		
-23.8117 -28.2809 18.2809		
31.1274 -35.0048 25.0048		
-43.0419 28.5303 -38.5303		
-5.10811 42.6685 -52.6685		
-6.6118 25.6238 -35.6238		
-21.4623 -11.9484 1.94836		
-43.0729 -42.1828 32.1828		
-1.51975 -38.3204 28.3204		
48.8722 -28.626 18.626		
4.43138 -45.9721 35.9721		
27.9175 18.8142 -28.8142		
-35.2709 11.954 -21.954		
27.0769 24.9795 -34.9795		
4.0032 -39.3201 29.3201		
0.768216 -13.4981 3.49812		
-40.4143 40.2641 -50.2641		
20.0536 -13.8827 3.88271		
-31.1795 37.6584 -47.6584		
9.10604 37.591 -47.591		
-28.6299 36.5511 -46.5511		
-31.5507 18.2153 -28.2153		
31.6801 -34.2577 24.2577		
-1.46195 -13.2169 3.21688		
27.3429 40.8607 -50.8607		
-14.6043 -36.3911 26.3911		
38.0072 -34.7343 24.7343		
8.63789 -9.88211 -0.11789		
-25.9273 27.7966 -37.7966		
-34.7753 -12.0797 2.07966		
-42.2659 -14.6525 4.65253		
30.9113 24.59 -34.59		
33.0134 46.6616 -56.6616		
-32.3807 -0.548759 -9.45124		
-5.09066 -41.9528 31.9528		
32.6523 15.258 -25.258		
-44.2411 -13.2258 3.22576		
20.4198 9.88903 -19.889		
-33.3142 -34.9354 24.9354		
-17.9608 14.9606 -24.9606		
-13.143 -41.5603 31.5603		
18.0838 -1.51587 -8.48413		
8.22283 30.0414 -40.0414		
-4.47732 -30.5206 20.5206		
28.2983 1.24632 -11.2463		
-33.2753 20.8 -30.8		
-48.2981 43.2314 -53.2314		
-22.1357 14.79 -24.79		
25.869 22.7783 -32.7783		
-33.7033 41.2128 -51.2128		
5.09941 1.97887 -11.9789		
47.0041 -2.44275 -7.55725		
-49.8669 19.252 -29.252		
41.8306 -25.7761 15.7761		
29.1007 33.969 -43.969		
-12.9726 36.3725 -46.3725		
-41.6094 8.40231 -18.4023		
-29.3624 46.0021 -56.0021		
-44.1954 -46.2708 36.2708		
26.1537 33.5561 -43.5561		
9.42876 -21.6378 11.6378		
-20.1466 -35.6846 25.6846		
47.033 37.1032 -47.1032		
17.7695 45.4227 -55.4227		
-8.68281 43.1436 -53.1436		
18.4223 -17.8241 7.82409		
45.0074 -47.5227 37.5227		
-6.61789 -14.327 4.32704		
-28.3999 29.923 -39.923		
-48.0862 -19.5323 9.53229		
33.3215 26.0634 -36.0634		
12.9604 -39.4537 29.4537		
-21.4058 -9.34959 -0.650406		
-10.1555 -24.2998 14.2998		
34.3503 40.6436 -50.6436		
38.868 -41.8133 31.8133		
45.5183 -37.1978 27.1978		
44.7396 -2.51621 -7.48379		
-36.4157 -10.4475 0.447461		
26.322 4.19573 -14.1957		
-19.7349 22.6219 -32.6219		
30.7137 -30.5439 20.5439		
-42.7249 7.43527 -17.4353		
4.4716 -4.0652 -5.9348		
48.1285 -7.89725 -2.10275		
3.45285 -18.1466 8.14661		
23.4868 -28.9396 18.9396		
48.7741 -46.1308 36.1308		
40.456 42.391 -52.391		
48.3534 -18.4488 8.44879		
-32.8342 3.35626 -13.3563		
-1.69755 -30.5075 20.5075		
-0.914745 20.24 -30.24		
-41.7028 -23.8198 13.8198		
-19.1217 -49.8893 39.8893		
-23.9615 35.8378 -45.8378		
49.3676 -8.14026 -1.85974		
35.4871 -26.3723 16.3723		
19.7586 15.2778 -25.2778		
-7.53306 2.6422 -12.6422		
-2.63039 -36.1431 26.1431		
-36.3405 11.2691 -21.2691		
35.3661 -2.3062 -7.6938		
14.1168 35.1244 -45.1244		
34.0397 36.6121 -46.6121		
-29.7837 -30.9491 20.9491		
-3.01289 -27.0006 17.0006		
4.61449 -44.2339 34.2339		
7.26898 -31.9072 21.9072		
-44.3597 1.4642 -11.4642		
6.18969 -32.1396 22.1396		
5.57868 29.991 -39.991		
-25.909 -49.6575 39.6575		
-1.93771 33.8675 -43.8675		
-45.5232 15.3566 -25.3566		
47.2631 -20.4196 10.4196		
46.1985 -32.4026 22.4026		
44.8675 -40.5755 30.5755		
13.4738 -3.00395 -6.99605		
42.9105 -22.5964 12.5964		
-22.9115 15.9559 -25.9559		
3.52308 -31.0935 21.0935		
-13.2363 -41.7066 31.7066		
40.0098 -41.9335 31.9335		
40.9909 49.5873 -59.5873		
-32.8475 31.2334 -41.2334		
-6.36101 -12.0383 2.03828		
46.9611 0.0425352 -10.0425		
41.6819 27.1229 -37.1229		
-18.7198 31.095 -41.095		
-39.2557 -12.7056 2.70555		
-7.23622 49.0649 -59.0649		
-19.5731 -36.0509 26.0509		
26.2674 -34.4784 24.4784		
-2.16524 -5.17941 -4.82059		
8.24224 0.967716 -10.9677		
-18.0725 12.2696 -22.2696		
-5.31492 -32.3298 22.3298		
-20.5487 21.7162 -31.7162		
-6.148 -21.6949 11.6949		
10.6938 -36.8635 26.8635		
44.2033 25.4372 -35.4372		
-48.3408 -33.262 23.262		
12.7145 -16.684 6.68402		
33.4212 23.7934 -33.7934		
9.71403 45.9191 -55.9191		
20.5843 26.8783 -36.8783		
3.87887 -5.45286 -4.54714		
-19.0091 20.0727 -30.0727		
-6.37625 29.6918 -39.6918		
-20.7163 -45.8729 35.8729		
43.4118 -6.46685 -3.53315		
-46.6786 10.377 -20.377		
-19.6629 -46.6268 36.6268		
-13.0381 -49.4289 39.4289		
43.5258 -17.9977 7.99768		
12.7396 21.6516 -31.6516		
-0.0912036 -47.8408 37.8408		
-16.3358 8.84027 -18.8403		
-37.5461 -21.4171 11.4171		
-29.7129 20.3905 -30.3905		
0.0787327 47.4903 -57.4903		
-46.9822 -32.9134 22.9134		
29.4501 4.44021 -14.4402		
-8.20577 7.37468 -17.3747		
-47.9864 -11.8454 1.84543		
-48.2965 41.581 -51.581		
43.8282 -31.3399 21.3399		
-30.1317 -22.5654 12.5654		
-1.49459 -30.5497 -8.50541		
40.3099 4.83583 -50.3099		
-42.2351 -49.6202 32.2351		
-17.1495 29.2028 7.14946		
48.3549 40.3361 -58.3549		
-26.9354 42.5647 16.9354		
29.5514 6.37565 -39.5514		
49.9498 -6.39463 -59.9498		
-37.6489 19.461 27.6489		
18.3509 -9.17304 -28.3509		
-2.0034 40.0924 -7.9966		
-27.1433 12.2352 17.1433		
-33.2973 -17.0484 23.2973		
29.0734 -30.1472 -39.0734		
15.8142 -3.68901 -25.8142		
-47.1831 -43.9276 37.1831		
-14.2659 4.76431 4.26587		
29.2663 -18.1069 -39.2663		
7.77956 -26.6345 -17.7796		
37.8925 -2.29249 -47.8925		
-36.3889 43.821 26.3889		
-7.92507 41.063 -2.07493		
32.7629 8.90785 -42.7629		
15.6524 -5.24209 -25.6524		
9.1172 -38.3952 -19.1172		
-10.538 -5.87915 0.537963		
33.7561 24.4838 -43.7561		
7.1691 -2.99817 -17.1691		
-41.2881 -1.55013 31.2881		
15.4602 46.5851 -25.4602		
-26.6114 -2.0642 16.6114		
-1.5206 41.6714 -8.4794		
23.6927 29.0753 -33.6927		
-42.3486 25.606 32.3486		
-24.4476 49.6904 14.4476		
41.0581 35.1272 -51.0581		
-31.6896 20.4429 21.6896		
3.50337 -31.2087 -13.5034		
45.5003 4.85861 -55.5003		
12.8249 -36.307 -22.8249		
-22.0074 47.239 12.0074		
-40.0701 19.3587 30.0701		
16.252 -30.8981 -26.252		
-2.89257 -11.997 -7.10743		
-1.34324 -2.64393 -8.65676		
21.207 -19.0116 -31.207		
37.945 -24.9846 -47.945		
-8.86507 -23.2086 -1.13493		
-49.2483 -35.2121 39.2483		
-10.4767 38.318 0.476715		
-39.2019 -42.3629 29.2019		
-9.30238 14.4207 -0.697615		
5.77987 -11.1092 -15.7799		
-0.290317 -6.36364 -9.70968		
-27.0052 24.8562 17.0052		
-31.1071 -0.0554018 21.1071		
-22.8448 48.677 12.8448		
23.1301 -38.4273 -33.1301		
20.2558 -25.2461 -30.2558		
-44.3781 -36.1969 34.3781		
13.2993 38.2387 -23.2993		
-37.0508 22.8235 27.0508		
-8.80961 -33.4922 -1.19039		
4.79984 33.6571 -14.7998		
40.3336 46.2984 -50.3336		
-45.8993 -30.8794 35.8993		
-31.6446 29.2141 21.6446		
44.322 44.4374 -54.322		
36.6801 -26.2158 -46.6801		
-12.6357 -35.9398 2.63565		
-23.2161 -1.50316 13.2161		
-33.4623 13.1966 23.4623		
44.989 -37.192 -54.989		
-48.2865 37.6315 38.2865		
-36.1785 9.86622 26.1785		
40.5924 14.6829 -50.5924		
-14.0745 -21.9634 4.07446		
-18.9405 29.0027 8.9405		
48.4525 -40.7456 -58.4525		
44.9037 43.7739 -54.9037		
18.6531 45.6184 -28.6531		
35.2291 27.3378 -45.2291		
-9.54363 -48.9423 -0.456369		
1.84891 -31.7518 -11.8489		
-12.866 34.4269 2.86597		
26.81 -48.7039 -36.81		
-46.3989 -21.7106 36.3989		
25.3215 17.9435 -35.3215		
-9.95939 41.6751 -0.040609		
27.0927 30.0372 -37.0927		
6.8277 -14.4605 -16.8277		
-44.1111 -35.8086 34.1111		
-1.6758 46.6487 -8.3242		
49.0283 -19.6605 -59.0283		
17.0481 11.1384 -27.0481		
-40.5845 -37.6874 30.5845		
-14.0894 -26.4574 4.08938		
31.5462 -9.98238 -41.5462		
23.2986 10.7159 -33.2986		
-17.2959 -23.4834 7.29586		
-49.2735 11.822 39.2735		
-18.6414 43.8112 8.64142		
-36.5925 9.50021 26.5925		
10.5802 -21.3753 -20.5802		
-46.0161 -45.9555 36.0161		
24.4518 14.4519 -34.4518		
20.3996 -42.679 -30.3996		
-7.20999 -30.0223 -2.79001		
30.3334 -36.6462 -40.3334		
-5.93432 18.3893 -4.06568		
1.1979 -6.33523 -11.1979		
14.6831 -48.6557 -24.6831		
5.43031 49.316 -15.4303		
-21.9122 -43.8952 11.9122		
15.4761 39.6872 -25.4761		
-47.2755 25.559 37.2755		
37.003 0.425842 -47.003		
19.5333 -43.1149 -29.5333		
15.8776 -28.4467 -25.8776		
-7.67217 -7.58658 -2.32783		
-19.6584 38.468 9.6584		
10.0742 -28.9749 -20.0742		
0.00155823 -41.6764 -10.0016		
8.00395 42.1773 -18.0039		
1.05882 16.103 -11.0588		
-2.96497 36.9249 -7.03503		
9.27195 -39.9444 -19.2719		
20.8373 13.1887 -30.8373		
-26.8795 35.422 16.8795		
26.3276 -40.9733 -36.3276		
-44.8097 28.129 34.8097		
-46.2208 38.5886 36.2208		
14.5269 8.89524 -24.5269		
-33.0372 25.1358 23.0372		
-48.771 41.6662 38.771		
9.91865 -42.9856 -19.9186		
24.7194 32.3489 -34.7194		
-36.6189 9.73654 26.6189		
13.9794 -30.5179 -23.9794		
-35.0505 -17.1571 25.0505		
35.6628 -38.3848 -45.6628		
1.84174 43.5305 -11.8417		
-3.03542 -46.1119 -6.96458		
43.5516 9.66212 -53.5516		
-40.1002 34.7699 30.1002		
29.4273 -7.87387 -39.4273		
15.7955 4.97727 -25.7955		
-35.7676 -31.5057 25.7676		
-20.9207 49.9108 10.9207		
6.12559 -10.9017 -16.1256		
-25.7169 30.297 15.7169		
25.0534 19.7565 -35.0534		
-7.77495 40.5895 -2.22505		
-21.1677 -16.1874 11.1677		
-48.4695 16.6742 38.4695		
-48.6221 4.7678 38.6221		
25.9093 32.3123 -35.9093		
7.55048 36.7855 -17.5505		
-47.8351 -14.4515 37.8351		
-7.78973 41.8107 -2.21027		
14.6148 37.5284 -24.6148		
-8.08529 7.83262 -1.91471		
33.0125 9.92102 -43.0125		
-23.5675 -25.054 13.5675		
-12.1213 -40.0048 2.12128		
-49.1381 6.90465 39.1381		
-34.2748 9.7237 24.2748		
-28.0005 9.44135 18.0005		
15.462 -25.0945 -25.462		
-20.1414 2.22595 10.1414		
4.84724 -34.8878 -14.8472		
37.2621 1.87476 -47.2621		
-6.36923 -41.0016 -3.63077		
-39.1318 24.3447 29.1318		
27.0016 42.8118 -37.0016		
8.03709 -31.8246 -18.0371		
18.1627 44.3307 -28.1627		
-12.0437 -10.8946 2.04369		
4.99729 26.0469 -14.9973		
6.86679 -13.827 -16.8668		
-24.9933 31.2653 14.9933		
-45.7355 5.89157 35.7355		
-20.79 31.6641 10.79		
2.28537 45.3111 -12.2854		
48.9898 -37.589 -58.9898		
-8.64645 44.7104 -1.35355		
7.98455 30.5383 -17.9845		
20.0229 -36.0157 -30.0229		
-35.5238 4.75712 25.5238		
30.9781 -0.240121 -40.9781		
22.663 9.83045 -32.663		
-47.7576 -41.0659 37.7576		
14.1318 16.9239 -24.1318		
-47.2115 8.44067 37.2115		
-11.6749 -14.0666 1.67489		
7.96003 -49.3853 -17.96		
4.07585 -26.7677 -14.0759		
48.4859 -23.1431 -58.4859		
-35.175 32.4195 25.175		
10.482 23.3446 -20.482		
40.0146 7.90124 -50.0146		
28.3195 47.4962 -38.3195		
-19.7661 11.7372 9.76615		
39.5553 4.64151 -49.5553		
-6.38798 -25.5755 -3.61202		
-30.3246 -24.8398 20.3246		
30.2156 38.2608 -40.2156		
-12.5657 7.79792 2.56573		
-44.2631 29.1342 34.2631		
-29.1593 27.8513 19.1593		
10.8308 -28.141 -20.8308		
5.55226 -0.493982 -15.5523		
45.3109 -21.6592 -55.3109		
-31.9028 47.9297 21.9028		
-47.4665 -47.4221 37.4665		
-41.2164 -2.41828 31.2164		
31.2735 -48.5883 -41.2735		
-40.1013 16.3632 30.1013		
-36.7848 34.6913 26.7848		
21.8754 21.5855 -31.8754		
25.0961 -29.1192 -35.0961		
8.42185 36.0022 -18.4218		
-42.6084 -15.1391 32.6084		
-38.4634 16.8092 28.4634		
-47.2114 2.81009 37.2114		
31.6632 39.55 -41.6632		
-23.3467 16.6029 13.3467		
-39.7644 2.69697 29.7644		
11.4723 29.9687 -21.4723		
8.84314 -17.0734 -18.8431		
-5.80552 7.20135 -4.19448		
-3.87133 30.7746 -6.12867		
-2.98871 40.6417 -7.01129		
-17.324 -11.3083 7.32401		
17.8854 17.5207 -27.8854		
-47.3098 17.8533 37.3098		
-2.38937 -23.7595 -7.61063		
-16.0789 45.5165 6.0789		
-34.3807 7.17792 24.3807		
40.9369 47.8662 -50.9369		
14.5471 3.86185 -24.5471		
23.0908 -39.2675 -33.0908		
-43.8019 9.73208 33.8019		
-18.5003 29.8298 8.50026		
32.0792 -2.0869 -42.0792		
33.2187 -25.8825 -43.2187		
-4.85505 -45.7394 -5.14495		
36.1 -32.7458 -46.1		
-9.82388 35.0187 -0.176121		
-10.8014 45.7873 0.801412		
17.1053 23.9636 -27.1053		
46.8497 -37.0389 -56.8497		
-25.1435 -11.1104 15.1435		
48.4106 -10.7319 -58.4106		
3.98601 -19.5321 -13.986		
28.107 6.13039 -38.107		
-48.5388 -21.0414 38.5388		
-21.7185 24.7649 11.7185		
1.06167 -14.7882 -11.0617		
-13.7774 29.8962 3.77744		
-24.0232 2.21024 14.0232		
-27.666 35.9917 17.666		
-26.0561 -42.4406 16.0561		
-18.9681 32.1536 8.96811		
43.0618 -35.4376 -53.0618		
22.5312 -33.5447 -32.5312		
-18.8326 48.6766 8.83256		
-45.6922 -34.9976 35.6922		
-37.6998 28.4781 27.6998		
-48.3442 -18.1589 38.3442		
-6.00517 -6.15485 -3.99483		
-44.939 -30.5126 34.939		
37.8545 3.14337 -47.8545		
-8.68872 -31.6138 -1.31128		
0.102259 -8.30065 -10.1023		
-3.96212 -23.6303 -6.03788		
7.88105 13.214 -17.881		
9.3353 -16.2568 -19.3353		
35.9714 21.3071 -45.9714		
2.01696 -46.7043 -12.017		
7.72041 33.2115 -17.7204		
21.4249 19.4805 -31.4249		
1.40503 4.83698 -11.405		
19.6464 4.89441 -29.6464		
-46.1756 43.7251 36.1756		
-46.3053 16.2612 36.3053		
41.1998 22.8604 -51.1998		
-28.2916 -21.6147 18.2916		
22.8859 25.6443 -32.8859		
23.3012 -47.5403 -33.3012		
-32.0724 -44.6766 22.0724		
-10.821 -6.77081 0.820973		
-3.50155 -35.4316 -6.49845		
29.937 -9.68085 -39.937		
-20.043 -19.7866 10.043		
49.719 3.09196 -59.719		
-11.4119 -36.3102 1.4119		
-41.2072 29.3487 31.2072		
-41.6989 -5.65184 31.6989		
-13.1894 30.7266 3.18938		
4.86698 17.8769 -14.867		
2.80885 -40.7821 -12.8089		
28.7253 6.37075 -38.7253		
6.80609 22.022 -16.8061		
-29.8136 43.5213 19.8136		
29.9061 -2.8976 -39.9061		
-49.2662 16.3477 39.2662		
-45.1644 44.4749 35.1644		
-35.354 -9.84988 25.354		
-27.4605 30.5179 17.4605		
-24.3589 -4.51807 14.3589		
22.0352 20.6063 -32.0352		
-5.14317 -29.008 -4.85683		
-24.7109 39.079 14.7109		
39.7416 -49.8678 -49.7416		
13.336 5.29307 -23.336		
-38.4483 -27.9083 28.4483		
-11.9816 43.9106 1.98164		
-17.5383 10.5252 7.53826		
-43.1734 -5.44768 33.1734		
-48.2751 34.3964 38.2751		
0.557384 26.9253 -10.5574		
34.8864 -39.2276 -44.8864		
24.3467 -13.1245 -34.3467		
-45.081 44.9546 35.081		
14.912 23.7381 -24.912		
26.9641 34.2027 -36.9641		
-11.9434 4.11872 1.94338		
20.9314 -45.1791 -30.9314		
-9.07425 -42.0212 -0.925748		
21.2356 -6.6556 -31.2356		
-47.417 -42.3668 37.417		
7.54275 -35.1892 -17.5428		
-44.5402 22.2004 34.5402		
-8.84093 11.5759 -1.15907		
31.4804 2.46429 -41.4804		
-13.9649 9.47351 3.96486		
-21.6568 27.4458 11.6568		
7.13984 -22.3836 -17.1398		
13.7937 24.8178 -23.7937		
24.9853 43.7661 -34.9853		
16.5138 -36.3946 -26.5138		
48.1929 -6.11512 -58.1929		
-20.0901 9.29403 10.0901		
-31.6536 -7.1604 21.6536		
32.0432 9.16568 -42.0432		
34.5772 20.0961 -44.5772		
-40.8273 23.9704 30.8273		
-36.8914 -32.0004 26.8914		
-38.8596 27.0393 28.8596		
25.8236 -6.5607 -35.8236		
6.5781 -4.89127 -16.5781		
45.2552 -14.0315 -55.2552		
-10.3033 12.8122 0.303327		
-30.2606 9.99693 20.2606		
-4.34356 23.207 -5.65644		
29.787 3.61496 -39.787		
-28.3426 -11.3621 18.3426		
-33.7604 46.631 23.7604		
20.308 44.1067 -30.308		
10.2265 22.7085 -20.2265		
24.1732 21.3653 -34.1732		
-15.9942 -1.31569 5.99417		
40.5828 18.714 -50.5828		
47.7169 -5.84021 -57.7169		
31.2114 13.2012 -41.2114		
-14.8518 48.7929 4.85176		
28.0515 -20.5448 -38.0515		
-26.1099 31.6831 16.1099		
48.8371 7.04854 -58.8371		
-28.5813 -38.6276 18.5813		
43.883 44.7436 -53.883		
-46.626 -15.149 36.626		
-14.3062 -39.5045 4.30622		
5.12573 -24.3899 -15.1257		
2.84061 33.5195 -12.8406		
-1.43187 -16.638 -8.56813		
-21.5205 31.3975 11.5205		
19.6682 44.6914 -29.6682		
-9.4974 -45.7976 -0.5026		
45.5964 -44.774 -55.5964		
-44.9106 -20.1712 34.9106		
3.64531 5.00139 -13.6453		
18.4957 -38.0853 -28.4957		
-10.4954 -0.400612 0.49542		
-44.3263 -42.3573 34.3263		
-44.4113 33.4443 34.4113		
-9.59429 9.92487 -0.405714		
-21.9067 -46.3528 11.9067		
-13.1075 21.6143 3.10749		
-30.3186 7.48457 20.3186		
25.4802 -28.0971 -35.4802		
46.7769 -11.6752 -56.7769		
-12.7249 -12.6721 2.72494		
18.5495 27.5307 -28.5495		
32.7301 9.97769 -42.7301		
35.2407 -41.5472 -45.2407		
-32.6757 21.2794 22.6757		
27.3055 31.7982 -37.3055		
41.0138 9.35511 -51.0138		
41.3378 -21.3036 -51.3378		
-17.3984 -8.01174 7.39842		
-37.8351 40.8842 27.8351		
15.6689 -24.8835 -25.6689		
-14.381 -25.7603 4.38105		
-16.8926 24.6284 6.89262		
3.85414 23.0881 -13.8541		
43.8729 1.55211 -53.8729		
49.4531 34.4894 -59.4531		
-45.5835 35.2149 35.5835		
27.5616 -44.8958 -37.5616		
0.0852747 -17.5854 -10.0853		
-8.87389 -40.9924 -1.12611		
-3.80201 24.5274 -6.19799		
16.5805 0.583846 -26.5805		
-48.8803 37.6632 38.8803		
-1.75429 5.38509 -8.24571		
-32.9883 32.9778 22.9883		
-18.806 -6.26127 8.80601		
-9.89446 -15.836 -0.105539		
4.48258 -11.1702 -14.4826		
-8.85163 4.58573 -1.14837		
-47.0305 -28.6334 37.0305		
33.3921 -46.7493 -43.3921		
-16.6883 26.2921 6.68834		
39.2579 10.2485 -49.2579		
0.0182635 -15.6032 -10.0183		
-39.5684 49.7153 29.5684		
-2.42883 -30.5401 -7.57117		
-4.20849 -12.8105 -5.79151		
32.9177 27.0972 -42.9177		
39.3187 3.50377 -49.3187		
31.0633 36.4678 -41.0633		
11.3568 -19.2311 -21.3568		
-23.6746 -15.6669 13.6746		
26.8776 35.2848 -36.8776		
-16.3979 12.628 6.39787		
