ply
format ascii 1.0
element vertex 1348
property float x
property float y
property float z
property uchar red
property uchar green
property uchar blue
end_header
0.157791 -13.528 13.5426 129 178 127
-46.2179 -5.28305 5.29767 195 0 163
49.7078 6.51616 -6.50155 129 178 127
-9.3023 -13.1557 13.1703 129 178 127
-49.0806 43.7239 -43.7093 195 0 163
-30.3371 7.09627 -7.08165 195 0 163
-41.8864 1.51985 -1.50525 195 0 163
-33.492 4.64166 -4.62706 195 0 163
17.4203 28.3124 -28.2978 195 0 163
-44.2728 39.1099 -39.0953 195 0 163
-8.70518 -28.8099 28.8245 129 178 127
-23.9841 3.81781 -3.80321 195 0 163
-37.2062 -27.9571 27.9717 195 0 163
31.2306 2.34052 -2.32592 129 178 127
-32.0367 51.9453 -51.9307 195 0 163
-33.3033 8.90851 -8.89395 195 0 163
2.49593 31.4245 -31.4099 195 0 163
38.7861 20.2094 -20.1947 129 178 127
-27.6715 38.9541 -38.9395 195 0 163
2.48103 40.7445 -40.7298 195 0 163
4.4792 -8.73475 8.74936 129 178 127
32.681 -44.3254 44.34 129 178 127
-27.7326 32.9484 -32.9338 195 0 163
-37.8381 26.9817 -26.9671 195 0 163
-12.7621 37.2383 -37.2236 195 0 163
6.17025 -16.0278 16.0424 129 178 127
-40.9966 -5.49325 5.50781 195 0 163
39.5937 35.1525 -35.1379 163 0 195
-40.9452 54.8314 -54.8167 195 0 163
-37.942 35.9522 -35.9375 195 0 163
-31.8577 -23.891 23.9056 195 0 163
-34.7103 24.2574 -24.2428 195 0 163
-39.8443 19.8325 -19.8179 195 0 163
-45.1419 -28.2639 28.2785 195 0 163
31.1717 28.5092 -28.4947 163 0 195
-19.157 33.3807 -33.3661 195 0 163
39.0966 -12.543 12.5576 129 178 127
-31.5772 20.2952 -20.2806 195 0 163
-32.4483 0.65836 -0.64376 195 0 163
-39.9928 31.8782 -31.8636 195 0 163
2.26424 5.24677 -5.23215 195 0 163
-20.0934 12.962 -12.9474 195 0 163
-26.9212 -15.0873 15.1019 195 0 163
38.9942 24.4034 -24.3888 129 178 127
47.5638 0.20967 -0.19507 129 178 127
-30.5973 -26.833 26.8476 195 0 163
22.9982 15.0017 -14.9871 129 178 127
12.686 17.6673 -17.6527 195 0 163
-40.1127 7.7127 -7.69805 195 0 163
-27.6209 -2.03261 2.04721 195 0 163
26.8099 32.2188 -32.2041 195 0 163
18.3931 21.6786 -21.664 163 0 195
3.45797 43.2229 -43.2083 195 0 163
-8.3815 48.2672 -48.2525 195 0 163
45.1208 -31.4533 31.4679 129 178 127
23.8296 23.6035 -23.5889 163 0 195
-4.36985 -34.0035 34.0181 129 178 127
13.4405 -41.1288 41.1434 129 178 127
-14.0568 15.2384 -15.2238 195 0 163
30.8503 -33.3539 33.3685 129 178 127
13.3044 -7.94935 7.96396 129 178 127
1.05445 8.19299 -8.17835 195 0 163
14.5938 42.6061 -42.5915 195 0 163
4.89898 0.44759 -0.43299 129 178 127
47.5716 -8.89355 8.9081 129 178 127
31.928 -29.907 29.9216 129 178 127
-31.3029 -10.7955 10.81 195 0 163
-7.70541 52.7246 -52.7099 195 0 163
-47.9207 -3.24805 3.26265 195 0 163
-39.3047 40.0453 -40.0307 195 0 163
47.605 -4.79207 4.80667 129 178 127
-49.0979 -15.3921 15.4067 195 0 163
15.6478 -1.99427 2.00887 129 178 127
17.5299 11.0787 -11.0641 129 178 127
38.6116 -34.8287 34.8434 129 178 127
22.6518 -1.02839 1.04299 129 178 127
-32.2429 -31.8175 31.8321 195 0 163
-40.1903 21.5392 -21.5246 195 0 163
-46.4889 -44.1504 44.1651 195 0 163
-27.399 -25.0271 25.0417 195 0 163
23.1752 1.49816 -1.48356 129 178 127
-35.2884 -43.2664 43.2811 129 178 127
42.0538 46.0202 -46.0056 163 0 195
-47.1345 44.3865 -44.3719 195 0 163
2.93878 -0.98268 0.99728 129 178 127
1.50697 21.5013 -21.4867 195 0 163
35.9928 -26.8143 26.8289 129 178 127
13.0807 46.5502 -46.5356 195 0 163
-43.3767 -38.1904 38.205 195 0 163
29.4049 21.1111 -21.0965 129 178 127
16.1661 34.3498 -34.3351 195 0 163
3.90325 -22.9381 22.9527 129 178 127
-25.7655 -21.6659 21.6805 195 0 163
25.3243 35.602 -35.5874 195 0 163
-34.9371 0.31997 -0.30537 195 0 163
-19.7242 11.1416 -11.127 195 0 163
8.69844 13.107 -13.0923 195 0 163
-5.54867 49.9254 -49.9108 195 0 163
-19.5733 35.5592 -35.5446 195 0 163
-8.21483 53.243 -53.2283 195 0 163
43.2094 -27.4379 27.4525 129 178 127
-37.023 -43.2484 43.263 195 0 163
-22.6971 47.1705 -47.1559 195 0 163
19.4998 22.933 -22.9184 163 0 195
13.5963 14.1828 -14.1682 163 0 195
-3.29804 17.0491 -17.0345 195 0 163
-26.8176 -5.86145 5.87609 195 0 163
19.7712 -12.6957 12.7102 129 178 127
-43.8997 -41.9023 41.9169 195 0 163
10.212 32.5804 -32.5658 195 0 163
30.7812 -1.46216 1.47676 129 178 127
-30.7252 -1.23294 1.24754 195 0 163
37.4083 -9.86805 9.88263 129 178 127
-17.8053 1.90163 -1.88703 195 0 163
-33.6604 48.4258 -48.4111 195 0 163
43.3212 52.2458 -52.2312 195 0 163
10.1255 44.4545 -44.4398 195 0 163
-31.7379 -4.05157 4.06617 195 0 163
30.2084 47.7753 -47.7607 195 0 163
-44.3185 -37.2983 37.3129 195 0 163
-23.8556 37.5682 -37.5536 195 0 163
41.7011 42.2569 -42.2423 163 0 195
41.5663 42.129 -42.1144 163 0 195
-5.46572 7.35238 -7.33775 195 0 163
-27.1826 18.4688 -18.4542 195 0 163
2.03749 37.1559 -37.1412 195 0 163
48.5466 -0.06942 0.08402 129 178 127
13.8374 0.86588 -0.85128 129 178 127
-40.0847 -23.3314 23.346 195 0 163
-25.9405 -22.3281 22.3427 195 0 163
22.0537 25.0103 -24.9957 163 0 195
-11.5857 -20.9294 20.944 129 178 127
-41.3027 -0.86878 0.88338 195 0 163
39.1001 19.7201 -19.7055 129 178 127
9.84616 19.5259 -19.5113 195 0 163
-0.493516 49.4072 -49.3925 195 0 163
-1.42532 18.1999 -18.1853 195 0 163
28.8467 32.9348 -32.9202 163 0 195
-18.0724 -7.73035 7.74497 195 0 163
-36.3128 16.9971 -16.9825 195 0 163
-2.79255 5.43538 -5.42075 195 0 163
-12.2292 12.0161 -12.0015 195 0 163
39.1581 35.1954 -35.1808 163 0 195
27.9346 8.44621 -8.43165 129 178 127
-6.27467 30.8779 -30.8633 195 0 163
33.5078 -27.1591 27.1737 129 178 127
18.2854 -3.69752 3.71212 129 178 127
12.445 -30.546 30.5606 129 178 127
-43.1675 -12.9308 12.9454 195 0 163
42.0539 -4.96196 4.97656 129 178 127
22.3471 -30.9969 31.0116 129 178 127
7.26092 -34.9464 34.9611 129 178 127
6.26443 -43.0674 43.082 129 178 127
43.6697 49.0865 -49.0719 163 0 195
-18.1709 45.1944 -45.1797 195 0 163
48.9476 26.1562 -26.1416 129 178 127
43.4898 -14.3547 14.3693 129 178 127
37.154 1.73402 -1.71942 129 178 127
22.8683 -10.0975 10.112 129 178 127
-49.0302 46.2493 -46.2347 195 0 163
-30.0333 17.4226 -17.4079 195 0 163
42.3488 17.2413 -17.2267 129 178 127
25.1247 47.9622 -47.9476 195 0 163
28.0306 27.3289 -27.3143 163 0 195
11.9993 47.0356 -47.021 195 0 163
-8.48107 6.7122 -6.69755 195 0 163
-41.8667 28.4117 -28.3971 195 0 163
-29.11 5.73358 -5.71895 195 0 163
41.3204 54.1255 -54.1108 195 0 163
1.26213 54.2505 -54.2359 195 0 163
-34.1248 -3.15485 3.16945 195 0 163
4.76978 30.8232 -30.8087 195 0 163
-8.24127 -17.5199 17.5345 129 178 127
-49.6366 -21.2274 21.242 195 0 163
-8.58153 -29.5507 29.5653 129 178 127
13.2727 49.39 -49.3754 195 0 163
12.3317 -0.86511 0.87971 129 178 127
30.876 5.2887 -5.27405 129 178 127
0.352776 -21.65 21.6646 129 178 127
-11.0781 -1.02865 1.04325 195 0 163
-42.8568 24.0618 -24.0472 195 0 163
30.5082 28.3971 -28.3824 163 0 195
-5.92617 -25.5566 25.5712 129 178 127
-47.5899 -2.14787 2.16247 195 0 163
9.80504 -19.1567 19.1713 129 178 127
37.9156 37.4911 -37.4764 163 0 195
-46.2144 54.2792 -54.2645 195 0 163
-39.7023 -23.7497 23.7643 195 0 163
-8.46692 22.3354 -22.3208 195 0 163
-48.6246 -27.1587 27.1733 195 0 163
39.9137 -25.7145 25.7291 129 178 127
42.264 43.9534 -43.9388 163 0 195
-38.0355 -21.8114 21.826 195 0 163
25.3134 -37.4669 37.4815 129 178 127
-10.183 12.8207 -12.8061 195 0 163
-39.0723 -24.5233 24.5379 195 0 163
-22.599 -38.8345 38.8491 129 178 127
44.9795 6.90858 -6.89395 129 178 127
-26.4765 33.5285 -33.5139 195 0 163
-32.8721 52.8749 -52.8603 195 0 163
36.7286 21.6828 -21.6682 129 178 127
-22.7901 -28.7733 28.7879 129 178 127
-38.0234 21.2534 -21.2388 195 0 163
31.9717 52.0145 -51.9999 195 0 163
5.15979 26.829 -26.8144 195 0 163
5.94963 21.479 -21.4644 195 0 163
47.5999 -2.54685 2.56145 129 178 127
40.8475 26.7562 -26.7416 129 178 127
-46.2018 -27.1271 27.1417 195 0 163
26.2585 43.0998 -43.0852 195 0 163
-48.2027 -20.1894 20.204 195 0 163
-19.8014 46.44 -46.4254 195 0 163
10.684 32.853 -32.8384 195 0 163
-5.57231 49.6446 -49.63 195 0 163
-49.8896 30.0122 -29.9977 195 0 163
33.3946 -36.5236 36.5382 129 178 127
-8.53714 33.7184 -33.7037 195 0 163
16.8035 6.05743 -6.04285 129 178 127
45.5372 -11.5817 11.5962 129 178 127
-20.4488 50.4973 -50.4827 195 0 163
-28.2272 21.0375 -21.0229 195 0 163
38.8452 -24.7093 24.7239 129 178 127
-2.25485 5.5642 -5.54965 195 0 163
-32.7484 13.8365 -13.8219 195 0 163
17.9435 9.90228 -9.88765 129 178 127
38.0141 13.3233 -13.3086 129 178 127
39.6677 -42.7878 42.8024 129 178 127
-36.4097 42.8492 -42.8346 195 0 163
-35.1808 13.4222 -13.4076 195 0 163
-47.0592 38.1439 -38.1293 195 0 163
-26.5251 33.8668 -33.8522 195 0 163
48.8582 -24.5282 24.5429 129 178 127
-2.61405 41.5419 -41.5273 195 0 163
9.71434 -0.07855 0.09315 129 178 127
-34.7337 -20.6648 20.6794 195 0 163
13.1347 3.42332 -3.40872 129 178 127
47.5841 -19.6292 19.6438 129 178 127
32.8878 -27.9888 28.0035 129 178 127
9.35326 18.0048 -17.9902 195 0 163
-5.72404 -4.8599 4.8745 195 0 163
3.9096 -34.1977 34.2123 129 178 127
-34.9715 -28.5132 28.5279 195 0 163
28.263 -11.6611 11.6756 129 178 127
-17.4626 35.9907 -35.9761 195 0 163
31.0221 -14.0818 14.0963 129 178 127
-10.4981 51.8445 -51.8299 195 0 163
5.62439 8.81526 -8.80065 195 0 163
15.5723 -19.1378 19.1524 129 178 127
-47.0863 -6.40875 6.42337 195 0 163
43.5872 12.8717 -12.8571 129 178 127
30.6926 7.21958 -7.20495 129 178 127
-36.5245 13.6762 -13.6615 195 0 163
-48.6828 -40.2161 40.2307 195 0 163
7.26345 26.3292 -26.3146 195 0 163
38.839 27.4694 -27.4549 129 178 127
46.5222 19.6882 -19.6735 129 178 127
48.6668 1.57382 -1.55922 129 178 127
17.0748 22.612 -22.5974 195 0 163
-12.2149 21.3645 -21.3499 195 0 163
-46.616 -41.2351 41.2497 195 0 163
9.5357 18.6383 -18.6237 195 0 163
20.432 33.0413 -33.0267 195 0 163
17.8291 39.1786 -39.164 195 0 163
-37.275 2.61164 -2.59704 195 0 163
1.66933 43.7786 -43.764 195 0 163
-44.2782 6.06651 -6.05195 195 0 163
-1.66874 52.4455 -52.4308 195 0 163
-38.8807 -27.7773 27.792 195 0 163
-1.24293 26.2188 -26.2042 195 0 163
-19.0875 -18.9499 18.9645 195 0 163
-13.0278 8.61643 -8.60185 195 0 163
-31.2073 -44.9567 44.9714 129 178 127
-9.75852 -28.2655 28.2801 129 178 127
40.6768 -40.1564 40.171 129 178 127
41.0521 41.4489 -41.4342 163 0 195
-28.0882 41.3106 -41.296 195 0 163
-47.0156 -33.8698 33.8845 195 0 163
-12.2051 7.61761 -7.60305 195 0 163
-44.2725 26.7696 -26.755 195 0 163
25.0515 16.4061 -16.3915 129 178 127
32.708 46.0668 -46.0522 195 0 163
41.2363 -10.5346 10.5492 129 178 127
-19.4996 -28.6332 28.6478 129 178 127
-23.2706 7.64065 -7.62605 195 0 163
-27.8948 41.2862 -41.2716 195 0 163
5.29308 18.9978 -18.9832 195 0 163
20.4717 24.4756 -24.461 195 0 163
13.4316 35.2502 -35.2356 195 0 163
29.7875 30.6467 -30.6321 163 0 195
8.41897 20.1698 -20.1551 195 0 163
8.74718 12.5404 -12.5258 195 0 163
27.0958 37.7359 -37.7213 195 0 163
13.3726 25.0512 -25.0366 195 0 163
6.83886 -10.8285 10.8431 129 178 127
47.0773 2.52856 -2.51396 129 178 127
-31.9683 -17.9412 17.9558 195 0 163
15.6544 45.0579 -45.0433 195 0 163
-16.7566 -18.1408 18.1554 195 0 163
3.77471 -0.19771 0.21231 129 178 127
-33.7986 -21.7436 21.7582 195 0 163
-41.9772 -5.25615 5.27079 195 0 163
26.5301 -7.10895 7.1235 129 178 127
40.4346 -12.4228 12.4373 129 178 127
-31.864 3.31903 -3.30443 195 0 163
-45.1444 -26.464 26.4786 195 0 163
15.8974 -4.10921 4.12381 129 178 127
35.72 32.1649 -32.1503 163 0 195
11.0916 0.2218 -0.2072 129 178 127
-40.304 39.2358 -39.2212 195 0 163
-43.0591 38.4845 -38.4699 195 0 163
4.65017 28.705 -28.6903 195 0 163
23.4348 -21.1078 21.1224 129 178 127
34.8405 21.0989 -21.0843 129 178 127
-18.3151 -24.0224 24.037 129 178 127
49.2954 4.13377 -4.11917 129 178 127
-22.2691 49.765 -49.7504 195 0 163
11.1257 -32.7477 32.7623 129 178 127
-7.87025 -40.5945 40.6091 129 178 127
-23.8999 47.4693 -47.4547 195 0 163
40.3923 18.9513 -18.9367 129 178 127
0.422496 10.6042 -10.5896 195 0 163
-37.3761 25.2259 -25.2113 195 0 163
19.1469 48.5208 -48.5062 195 0 163
7.98335 -31.4984 31.5131 129 178 127
-3.87945 -30.0224 30.0371 129 178 127
-27.2619 -31.3351 31.3498 195 0 163
-46.8948 38.2099 -38.1953 195 0 163
46.7079 -3.1369 3.1515 129 178 127
30.8815 -16.335 16.3496 129 178 127
-26.6634 23.4384 -23.4238 195 0 163
-6.66987 -1.16168 1.17628 195 0 163
47.0567 21.294 -21.2794 129 178 127
45.3254 -0.82611 0.84071 129 178 127
-24.6842 20.8041 -20.7895 195 0 163
19.5323 -29.6198 29.6344 129 178 127
-1.87321 43.9029 -43.8882 195 0 163
-41.1334 -15.9736 15.9882 195 0 163
-37.8522 8.26479 -8.25015 195 0 163
-7.77073 50.0314 -50.0168 195 0 163
-32.7713 31.202 -31.1874 195 0 163
8.87716 13.6594 -13.6448 195 0 163
-39.8118 -17.968 17.9826 195 0 163
-2.62809 19.2276 -19.213 195 0 163
0.727194 49.7475 -49.7329 195 0 163
-40.899 18.7241 -18.7095 195 0 163
-40.0005 44.1784 -44.1638 195 0 163
-36.0245 0.07192 -0.05732 195 0 163
13.2165 -39.6575 39.6721 129 178 127
-31.8279 -14.6246 14.6391 195 0 163
37.752 21.8131 -21.7985 129 178 127
14.728 34.1218 -34.1072 195 0 163
-43.4804 -37.9975 38.0121 195 0 163
17.2211 51.8404 -51.8257 195 0 163
-37.1622 45.6031 -45.5885 195 0 163
11.3341 16.7075 -16.6929 195 0 163
18.8896 25.3671 -25.3525 195 0 163
46.4506 5.68202 -5.66745 129 178 127
-41.436 27.3453 -27.3306 195 0 163
39.2233 -19.1217 19.1363 129 178 127
-17.2879 -29.9984 30.013 129 178 127
43.6993 -12.7309 12.7454 129 178 127
29.4124 11.7856 -11.771 129 178 127
-13.2357 19.6595 -19.6449 195 0 163
-30.0837 29.0927 -29.0781 195 0 163
-46.843 -14.4845 14.4991 195 0 163
39.7514 52.0771 -52.0625 195 0 163
4.18153 43.722 -43.7074 195 0 163
49.4412 30.5369 -30.5223 129 178 127
-28.8364 15.1203 -15.1057 195 0 163
-31.3708 -20.776 20.7906 195 0 163
31.6717 -0.50734 0.52194 129 178 127
15.4177 28.0227 -28.0081 195 0 163
-25.0056 20.4525 -20.4379 195 0 163
-2.00107 -12.5824 12.5969 129 178 127
14.6734 52.3546 -52.34 195 0 163
-18.3075 -10.7783 10.7929 195 0 163
-12.4971 15.9814 -15.9668 195 0 163
-46.5169 -19.8319 19.8465 195 0 163
14.3522 -26.8006 26.8152 129 178 127
-45.5738 37.5257 -37.5111 195 0 163
-32.6744 48.4243 -48.4097 195 0 163
39.826 47.9956 -47.981 195 0 163
27.4055 -8.40525 8.41989 129 178 127
-28.4633 48.2004 -48.1857 195 0 163
-23.8115 -29.7591 29.7738 129 178 127
-23.7921 -23.3161 23.3307 195 0 163
31.147 -30.04 30.0546 129 178 127
-43.0223 33.4951 -33.4805 195 0 163
-5.08851 47.6334 -47.6187 195 0 163
-6.5922 30.5886 -30.574 195 0 163
-21.4427 -6.98355 6.99811 195 0 163
-43.0533 -37.218 37.2326 195 0 163
-1.50015 -33.3556 33.3702 129 178 127
48.8918 -23.6612 23.6758 129 178 127
4.45098 -41.0072 41.0219 129 178 127
27.9371 23.779 -23.7644 163 0 195
-35.2513 16.9188 -16.9042 195 0 163
27.0965 29.9444 -29.9297 163 0 195
4.0228 -34.3552 34.3698 129 178 127
0.787816 -8.53325 8.54787 129 178 127
-40.3947 45.2289 -45.2143 195 0 163
20.0732 -8.91785 8.93246 129 178 127
-31.1599 42.6232 -42.6086 195 0 163
9.12564 42.5558 -42.5412 195 0 163
-28.6103 41.5159 -41.5013 195 0 163
-31.5311 23.1801 -23.1655 195 0 163
31.6997 -29.2929 29.3075 129 178 127
-1.44235 -8.25205 8.26663 129 178 127
27.3625 45.8255 -45.8109 195 0 163
-14.5847 -31.4263 31.4409 129 178 127
38.0268 -29.7694 29.7841 129 178 127
8.65749 -4.91726 4.93186 129 178 127
-25.9077 32.7614 -32.7468 195 0 163
-34.7557 -7.11485 7.12941 195 0 163
-42.2463 -9.68765 9.70228 195 0 163
30.9309 29.5548 -29.5403 163 0 195
33.033 51.6264 -51.6118 195 0 163
-32.3611 4.41609 -4.40149 195 0 163
-5.07106 -36.988 37.0025 129 178 127
32.6719 20.2228 -20.2082 129 178 127
-44.2215 -8.26095 8.27551 195 0 163
20.4394 14.8539 -14.8392 129 178 127
-33.2946 -29.9706 29.9852 195 0 163
-17.9412 19.9254 -19.9108 195 0 163
-13.1234 -36.5954 36.6101 129 178 127
18.1034 3.44898 -3.43438 129 178 127
8.24243 35.0062 -34.9916 195 0 163
-4.45772 -25.5558 25.5704 129 178 127
28.3179 6.21117 -6.19655 129 178 127
-33.2557 25.7648 -25.7502 195 0 163
-48.2785 48.1962 -48.1816 195 0 163
-22.1161 19.7548 -19.7402 195 0 163
25.8886 27.7431 -27.7285 163 0 195
-33.6837 46.1776 -46.163 195 0 163
5.11901 6.94372 -6.92915 195 0 163
47.0237 2.5221 -2.5075 129 178 127
-49.8473 24.2168 -24.2022 195 0 163
41.8502 -20.8113 20.8259 129 178 127
29.1203 38.9338 -38.9192 195 0 163
-12.953 41.3374 -41.3227 195 0 163
-41.5898 13.3672 -13.3525 195 0 163
-29.3428 50.9669 -50.9523 195 0 163
-44.1758 -41.306 41.3206 195 0 163
26.1733 38.5209 -38.5063 195 0 163
9.44836 -16.673 16.6876 129 178 127
-20.127 -30.7198 30.7344 129 178 127
47.0526 42.068 -42.0534 163 0 195
17.7891 50.3875 -50.3729 195 0 163
-8.66321 48.1084 -48.0938 195 0 163
18.4419 -12.8593 12.8738 129 178 127
45.027 -42.5579 42.5725 129 178 127
-6.59829 -9.36215 9.37679 129 178 127
-28.3803 34.8879 -34.8732 195 0 163
-48.0666 -14.5675 14.582 195 0 163
33.3411 31.0282 -31.0136 163 0 195
12.98 -34.4888 34.5035 129 178 127
-21.3862 -4.38474 4.39934 195 0 163
-10.1359 -19.335 19.3496 129 178 127
34.3699 45.6084 -45.5938 195 0 163
38.8876 -36.8484 36.8631 129 178 127
45.5379 -32.233 32.2476 129 178 127
44.7592 2.44864 -2.43404 129 178 127
-36.3961 -5.48265 5.49721 195 0 163
26.3416 9.16058 -9.14595 129 178 127
-19.7153 27.5867 -27.5721 195 0 163
30.7333 -25.5791 25.5937 129 178 127
-42.7053 12.4001 -12.3855 195 0 163
4.4912 0.89965 -0.88505 129 178 127
48.1481 -2.9324 2.947 129 178 127
3.47245 -13.1818 13.1964 129 178 127
23.5064 -23.9748 23.9894 129 178 127
48.7937 -41.166 41.1806 129 178 127
40.4756 47.3558 -47.3412 163 0 195
48.373 -13.484 13.4985 129 178 127
-32.8146 8.32111 -8.30655 195 0 163
-1.67795 -25.5427 25.5573 129 178 127
-0.895145 25.2048 -25.1902 195 0 163
-41.6832 -18.855 18.8696 195 0 163
-19.1021 -44.9245 44.9391 129 178 127
-23.9419 40.8026 -40.788 195 0 163
49.3872 -3.17541 3.19001 129 178 127
35.5067 -21.4075 21.4221 129 178 127
19.7782 20.2426 -20.228 163 0 195
-7.51346 7.60705 -7.59245 195 0 163
-2.61079 -31.1782 31.1929 129 178 127
-36.3209 16.234 -16.2193 195 0 163
35.3857 2.65865 -2.64405 129 178 127
14.1364 40.0892 -40.0746 195 0 163
34.0593 41.5769 -41.5623 195 0 163
-29.7641 -25.9843 25.9989 195 0 163
-2.99329 -22.0358 22.0504 129 178 127
4.63409 -39.2691 39.2837 129 178 127
7.28858 -26.9424 26.957 129 178 127
-44.3401 6.42905 -6.41445 195 0 163
6.20929 -27.1748 27.1894 129 178 127
5.59828 34.9558 -34.9412 195 0 163
-25.8894 -44.6927 44.7073 129 178 127
-1.91811 38.8323 -38.8177 195 0 163
-45.5036 20.3214 -20.3068 195 0 163
47.2827 -15.4548 15.4694 129 178 127
46.2181 -27.4378 27.4524 129 178 127
44.8871 -35.6106 35.6253 129 178 127
13.4934 1.9609 -1.9463 129 178 127
42.9301 -17.6316 17.6462 129 178 127
-22.8919 20.9207 -20.9061 195 0 163
3.54268 -26.1287 26.1433 129 178 127
-13.2167 -36.7418 36.7564 129 178 127
40.0294 -36.9687 36.9832 129 178 127
41.0105 54.5521 -54.5375 195 0 163
-32.8279 36.1983 -36.1837 195 0 163
-6.34141 -7.07345 7.08803 195 0 163
46.9807 5.00739 -4.99275 129 178 127
41.7015 32.0877 -32.0731 129 178 127
-18.7002 36.0598 -36.0452 195 0 163
-39.2361 -7.74075 7.7553 195 0 163
-7.21662 54.0297 -54.0151 195 0 163
-19.5535 -31.0861 31.1007 129 178 127
26.287 -29.5136 29.5282 129 178 127
-2.14564 -0.21456 0.22916 195 0 163
8.26184 5.93257 -5.91795 129 178 127
-18.0529 17.2344 -17.2198 195 0 163
-5.29532 -27.365 27.3796 129 178 127
-20.5291 26.681 -26.6664 195 0 163
-6.1284 -16.7301 16.7447 129 178 127
10.7134 -31.8987 31.9133 129 178 127
44.2229 30.402 -30.3874 129 178 127
-48.3212 -28.2972 28.3118 195 0 163
12.7341 -11.7192 11.7338 129 178 127
33.4408 28.7582 -28.7436 163 0 195
9.73363 50.8839 -50.8693 195 0 163
20.6039 31.8431 -31.8285 195 0 163
3.89847 -0.48801 0.50261 129 178 127
-18.9895 25.0375 -25.0229 195 0 163
-6.35665 34.6566 -34.642 195 0 163
-20.6967 -40.9081 40.9227 129 178 127
43.4314 -1.502 1.5166 129 178 127
-46.659 15.3418 -15.3272 195 0 163
-19.6433 -41.662 41.6766 129 178 127
-13.0185 -44.4641 44.4787 129 178 127
43.5454 -13.0328 13.0474 129 178 127
12.7592 26.6164 -26.6018 195 0 163
-0.0716036 -42.876 42.8906 129 178 127
-16.3162 13.8051 -13.7905 195 0 163
-37.5265 -16.4523 16.4669 195 0 163
-29.6933 25.3553 -25.3407 195 0 163
0.0983327 52.4551 -52.4405 195 0 163
-46.9626 -27.9486 27.9632 195 0 163
29.4697 9.40506 -9.39045 129 178 127
-8.18617 12.3395 -12.3249 195 0 163
-47.9668 -6.88055 6.89518 195 0 163
-48.2769 46.5459 -46.5312 195 0 163
43.8478 -26.3751 26.3897 129 178 127
-30.1121 -17.6006 17.6152 195 0 163
-1.47499 -25.5849 -3.45566 195 0 163
40.3295 9.80068 -45.2601 163 0 195
-42.2155 -44.6553 37.2849 195 0 163
-17.1299 34.1676 12.1992 195 0 163
48.3745 45.301 -53.3051 163 0 195
-26.9158 47.5296 21.9852 195 0 163
29.571 11.3405 -34.5016 163 0 195
49.9694 -1.42978 -54.9001 163 0 195
-37.6293 24.4258 32.6987 195 0 163
18.3705 -4.20819 -23.3011 195 0 163
-1.9838 45.0572 -2.94685 195 0 163
-27.1237 17.2 22.1931 195 0 163
-33.2777 -12.0836 28.3471 195 0 163
29.093 -25.1824 -34.0236 163 0 195
15.8338 1.27584 -20.7644 195 0 163
-47.1635 -38.9627 42.2329 195 0 163
-14.2463 9.72916 9.31562 195 0 163
29.2859 -13.1421 -34.2165 163 0 195
7.79916 -21.6697 -12.7298 195 0 163
37.9121 2.67236 -42.8427 163 0 195
-36.3693 48.7858 31.4387 195 0 163
-7.90547 46.0279 2.97482 195 0 163
32.7825 13.8727 -37.7131 163 0 195
15.672 -0.27724 -20.6026 195 0 163
9.1368 -33.4304 -14.0674 195 0 163
-10.5184 -0.9143 5.58771 195 0 163
33.7757 29.4486 -38.7064 163 0 195
7.1887 1.96668 -12.1193 195 0 163
-41.2685 3.41472 36.3379 195 0 163
15.4798 51.5499 -20.4104 195 0 163
-26.5918 2.90065 21.6612 195 0 163
-1.501 46.6362 -3.42965 195 0 163
23.7123 34.0401 -28.6429 195 0 163
-42.329 30.5709 37.3984 195 0 163
-24.428 54.6552 19.4974 195 0 163
41.0777 40.0921 -46.0084 163 0 195
-31.67 25.4078 26.7394 195 0 163
3.52297 -26.2439 -8.45365 195 0 163
45.5199 9.82346 -50.4505 163 0 195
12.8445 -31.3422 -17.7751 195 0 163
-21.9878 52.2038 17.0572 195 0 163
-40.0505 24.3235 35.1198 195 0 163
16.2716 -25.9333 -21.2022 195 0 163
-2.87297 -7.03215 -2.05768 195 0 163
-1.32364 2.32092 -3.60701 195 0 163
21.2266 -14.0468 -26.1572 195 0 163
37.9646 -20.0198 -42.8952 163 0 195
-8.84547 -18.2438 3.91482 195 0 163
-49.2287 -30.2473 44.2981 195 0 163
-10.4571 43.2828 5.52647 195 0 163
-39.1823 -37.3981 34.2516 195 0 163
-9.28278 19.3855 4.35214 195 0 163
5.79947 -6.14435 -10.7301 195 0 163
-0.270717 -1.39879 -4.65993 195 0 163
-26.9856 29.821 22.055 195 0 163
-31.0875 4.90945 26.1569 195 0 163
-22.8252 53.6418 17.8946 195 0 163
23.1497 -33.4625 -28.0803 195 0 163
20.2754 -20.2812 -25.206 195 0 163
-44.3585 -31.2321 39.4279 195 0 163
13.3189 43.2035 -18.2495 195 0 163
-37.0312 27.7883 32.1005 195 0 163
-8.79001 -28.5273 3.85936 195 0 163
4.81944 38.6219 -9.75005 195 0 163
40.3532 51.2632 -45.2838 163 0 195
-45.8797 -25.9146 40.949 195 0 163
-31.625 34.179 26.6944 195 0 163
44.3416 49.4022 -49.2722 163 0 195
36.6997 -21.251 -41.6303 163 0 195
-12.6161 -30.9749 7.6854 195 0 163
-23.1965 3.46169 18.2659 195 0 163
-33.4427 18.1614 28.5121 195 0 163
45.0086 -32.2272 -49.9392 163 0 195
-48.2669 42.5964 43.3362 195 0 163
-36.1589 14.8311 31.2283 195 0 163
40.612 19.6477 -45.5426 163 0 195
-14.0549 -16.9986 9.12421 195 0 163
-18.9209 33.9676 13.9903 195 0 163
48.4721 -35.7808 -53.4027 163 0 195
44.9233 48.7387 -49.8539 163 0 195
18.6727 50.5832 -23.6033 195 0 163
35.2487 32.3026 -40.1793 163 0 195
-9.52403 -43.9775 4.59338 195 0 163
1.86851 -26.787 -6.79915 195 0 163
-12.8464 39.3918 7.91572 195 0 163
26.8296 -43.739 -31.7602 163 0 195
-46.3793 -16.7458 41.4487 195 0 163
25.3411 22.9083 -30.2717 195 0 163
-9.93979 46.6399 5.00914 195 0 163
27.1123 35.002 -32.0429 163 0 195
6.8473 -9.49565 -11.7779 195 0 163
-44.0915 -30.8438 39.1609 195 0 163
-1.6562 51.6135 -3.27445 195 0 163
49.0479 -14.6957 -53.9785 163 0 195
17.0677 16.1032 -21.9983 195 0 163
-40.5649 -32.7225 35.6343 195 0 163
-14.0698 -21.4926 9.13913 195 0 163
31.5658 -5.01753 -36.4964 163 0 195
23.3182 15.6807 -28.2488 195 0 163
-17.2763 -18.5186 12.3456 195 0 163
-49.2539 16.7868 44.3233 195 0 163
-18.6218 48.776 13.6912 195 0 163
-36.5729 14.4651 31.6423 195 0 163
10.5998 -16.4105 -15.5304 195 0 163
-45.9965 -40.9907 41.0659 195 0 163
24.4714 19.4168 -29.402 195 0 163
20.4192 -37.7142 -25.3498 195 0 163
-7.19039 -25.0575 2.25974 195 0 163
30.353 -31.6814 -35.2836 163 0 195
-5.91472 23.3541 0.98407 195 0 163
1.2175 -1.37038 -6.14815 195 0 163
14.7027 -43.6909 -19.6333 195 0 163
5.44991 54.2809 -10.3805 195 0 163
-21.8926 -38.9304 16.962 195 0 163
15.4957 44.652 -20.4263 195 0 163
-47.2559 30.5238 42.3253 195 0 163
37.0226 5.39069 -41.9532 163 0 195
19.5529 -38.1501 -24.4835 195 0 163
15.8972 -23.4819 -20.8278 195 0 163
-7.65257 -2.62173 2.72192 195 0 163
-19.6388 43.4329 14.7082 195 0 163
10.0938 -24.0101 -15.0244 195 0 163
0.0211582 -36.7116 -4.95185 195 0 163
8.02355 47.1422 -12.9541 195 0 163
1.07842 21.0678 -6.00905 195 0 163
-2.94537 41.8897 -1.98528 195 0 163
9.29155 -34.9796 -14.2221 195 0 163
20.8569 18.1535 -25.7875 195 0 163
-26.8599 40.3868 21.9293 195 0 163
26.3472 -36.0085 -31.2778 163 0 195
-44.7901 33.0939 39.8595 195 0 163
-46.2012 43.5534 41.2706 195 0 163
14.5465 13.8601 -19.4771 195 0 163
-33.0176 30.1006 28.087 195 0 163
-48.7514 46.6311 43.8208 195 0 163
9.93825 -38.0207 -14.8688 195 0 163
24.739 37.3137 -29.6696 195 0 163
-36.5993 14.7014 31.6687 195 0 163
13.999 -25.5531 -18.9296 195 0 163
-35.0309 -12.1923 30.1003 195 0 163
35.6824 -33.42 -40.613 163 0 195
1.86134 48.4954 -6.79195 195 0 163
-3.01582 -41.1471 -1.91483 195 0 163
43.5712 14.627 -48.5018 163 0 195
-40.0806 39.7347 35.15 195 0 163
29.4469 -2.90902 -34.3775 163 0 195
15.8151 9.94212 -20.7457 195 0 163
-35.748 -26.5409 30.8174 195 0 163
-20.9011 54.8757 15.9705 195 0 163
6.14519 -5.93685 -11.0758 195 0 163
-25.6973 35.2618 20.7667 195 0 163
25.073 24.7213 -30.0037 195 0 163
-7.75535 45.5543 2.8247 195 0 163
-21.1481 -11.2226 16.2175 195 0 163
-48.4499 21.639 43.5192 195 0 163
-48.6025 9.73265 43.6719 195 0 163
25.9289 37.2771 -30.8595 163 0 195
7.57008 41.7503 -12.5007 195 0 163
-47.8155 -9.48665 42.8849 195 0 163
-7.77013 46.7755 2.83948 195 0 163
14.6344 42.4932 -19.565 195 0 163
-8.06569 12.7975 3.13504 195 0 163
33.0321 14.8859 -37.9627 163 0 195
-23.5479 -20.0892 18.6173 195 0 163
-12.1017 -35.04 7.17103 195 0 163
-49.1185 11.8695 44.1879 195 0 163
-34.2552 14.6885 29.3246 195 0 163
-27.9809 14.4062 23.0503 195 0 163
15.4816 -20.1297 -20.4122 195 0 163
-20.1218 7.1908 15.1912 195 0 163
4.86684 -29.923 -9.79745 195 0 163
37.2817 6.83961 -42.2123 163 0 195
-6.34963 -36.0368 1.41898 195 0 163
-39.1122 29.3095 34.1816 195 0 163
27.0212 47.7766 -31.9519 163 0 195
8.05669 -26.8598 -12.9873 195 0 163
18.1823 49.2955 -23.1129 195 0 163
-12.0241 -5.92975 7.09344 195 0 163
5.01689 31.0117 -9.94755 195 0 163
6.88639 -8.86215 -11.817 195 0 163
-24.9737 36.2301 20.0431 195 0 163
-45.7159 10.8564 40.7853 195 0 163
-20.7704 36.629 15.8398 195 0 163
2.30497 50.276 -7.23565 195 0 163
49.0094 -32.6242 -53.94 163 0 195
-8.62685 49.6752 3.6962 195 0 163
8.00415 35.5031 -12.9347 195 0 163
20.0425 -31.0509 -24.9731 195 0 163
-35.5042 9.72197 30.5736 195 0 163
30.9977 4.72473 -35.9283 163 0 195
22.6826 14.7953 -27.6132 195 0 163
-47.738 -36.1011 42.8073 195 0 163
14.1514 21.8887 -19.082 195 0 163
-47.1919 13.4055 42.2613 195 0 163
-11.6553 -9.10175 6.72464 195 0 163
7.97963 -44.4205 -12.9102 195 0 163
4.09545 -21.8029 -9.02615 195 0 163
48.5055 -18.1783 -53.4361 163 0 195
-35.1554 37.3843 30.2248 195 0 163
10.5016 28.3094 -15.4322 195 0 163
40.0342 12.8661 -44.9648 163 0 195
28.3391 52.4611 -33.2697 163 0 195
-19.7465 16.702 14.8159 195 0 163
39.5749 9.60636 -44.5055 163 0 195
-6.36838 -20.6107 1.43773 195 0 163
-30.305 -19.875 25.3744 195 0 163
30.2352 43.2257 -35.1658 163 0 195
-12.5461 12.7628 7.61548 195 0 163
-44.2435 34.099 39.3129 195 0 163
-29.1397 32.8161 24.2091 195 0 163
10.8504 -23.1761 -15.781 195 0 163
5.57186 4.47087 -10.5025 195 0 163
45.3305 -16.6944 -50.2611 163 0 195
-31.8832 52.8945 26.9526 195 0 163
-47.4469 -42.4573 42.5163 195 0 163
-41.1968 2.54657 36.2662 195 0 163
31.2931 -43.6234 -36.2237 163 0 195
-40.0817 21.328 35.151 195 0 163
-36.7652 39.6561 31.8346 195 0 163
21.895 26.5503 -26.8256 195 0 163
25.1157 -24.1544 -30.0463 195 0 163
8.44145 40.9671 -13.372 195 0 163
-42.5888 -10.1743 37.6582 195 0 163
-38.4438 21.774 33.5132 195 0 163
-47.1918 7.77494 42.2612 195 0 163
31.6828 44.5148 -36.6135 163 0 195
-23.3271 21.5678 18.3965 195 0 163
-39.7448 7.66182 34.8141 195 0 163
11.4919 34.9335 -16.4225 195 0 163
8.86274 -12.1086 -13.7933 195 0 163
-5.78592 12.1662 0.85527 195 0 163
-3.85173 35.7394 -1.07892 195 0 163
-2.96911 45.6065 -1.96154 195 0 163
-17.3044 -6.34345 12.3738 195 0 163
17.905 22.4855 -22.8356 195 0 163
-47.2902 22.8181 42.3596 195 0 163
-2.36977 -18.7947 -2.56088 195 0 163
-16.0593 50.4813 11.1287 195 0 163
-34.3611 12.1428 29.4305 195 0 163
40.9565 52.831 -45.8871 163 0 195
14.5667 8.8267 -19.4973 195 0 163
23.1104 -34.3026 -28.041 195 0 163
-43.7823 14.6969 38.8517 195 0 163
-18.4807 34.7946 13.55 195 0 163
32.0988 2.87795 -37.0294 163 0 195
33.2383 -20.9177 -38.1689 163 0 195
-4.83545 -40.7746 -0.0952 195 0 163
36.1196 -27.781 -41.0502 163 0 195
-9.80428 39.9836 4.87363 195 0 163
-10.7818 50.7522 5.85116 195 0 163
17.1249 28.9284 -22.0555 195 0 163
46.8693 -32.074 -51.7999 163 0 195
-25.1239 -6.14555 20.1933 195 0 163
48.4302 -5.76705 -53.3608 163 0 195
4.00561 -14.5673 -8.93625 195 0 163
28.1266 11.0952 -33.0572 163 0 195
-48.5192 -16.0766 43.5886 195 0 163
-21.6989 29.7297 16.7683 195 0 163
1.08127 -9.82335 -6.01195 195 0 163
-13.7578 34.861 8.82719 195 0 163
-24.0036 7.17509 19.073 195 0 163
-27.6464 40.9566 22.7158 195 0 163
-26.0365 -37.4758 21.1059 195 0 163
-18.9485 37.1184 14.0179 195 0 163
43.0814 -30.4728 -48.012 163 0 195
22.5508 -28.5799 -27.4814 195 0 163
-18.813 53.6414 13.8823 195 0 163
-45.6726 -30.0328 40.742 195 0 163
-37.6802 33.4429 32.7495 195 0 163
-48.3246 -13.1941 43.394 195 0 163
-5.98557 -1.19 1.05492 195 0 163
-44.9194 -25.5478 39.9888 195 0 163
37.8741 8.10822 -42.8047 163 0 195
-8.66912 -26.649 3.73847 195 0 163
0.121859 -3.3358 -5.05255 195 0 163
-3.94252 -18.6654 -0.98813 195 0 163
7.90065 18.1788 -12.8312 195 0 163
9.3549 -11.2919 -14.2855 195 0 163
35.991 26.2719 -40.9216 163 0 195
2.03656 -41.7395 -6.96725 195 0 163
7.74001 38.1763 -12.6706 195 0 163
21.4445 24.4453 -26.3751 195 0 163
1.42463 9.80183 -6.35525 195 0 163
19.666 9.85926 -24.5966 195 0 163
-46.156 48.6899 41.2254 195 0 163
-46.2857 21.226 41.3551 195 0 163
41.2194 27.8252 -46.1501 163 0 195
-28.272 -16.6499 23.3414 195 0 163
22.9055 30.6091 -27.8361 195 0 163
23.3208 -42.5755 -28.2514 195 0 163
-32.0528 -39.7118 27.1222 195 0 163
-10.8014 -1.80596 5.87072 195 0 163
-3.48195 -30.4668 -1.4487 195 0 163
29.9566 -4.716 -34.8872 163 0 195
-20.0234 -14.8218 15.0928 195 0 163
49.7386 8.05681 -54.6692 163 0 195
-11.3923 -31.3454 6.46165 195 0 163
-41.1876 34.3135 36.257 195 0 163
-41.6793 -0.68699 36.7486 195 0 163
-13.1698 35.6915 8.23913 195 0 163
4.88658 22.8417 -9.81725 195 0 163
2.82845 -35.8173 -7.75915 195 0 163
28.7449 11.3356 -33.6755 163 0 195
6.82569 26.9868 -11.7563 195 0 163
-29.794 48.4861 24.8634 195 0 163
29.9257 2.06725 -34.8563 163 0 195
-49.2466 21.3125 44.316 195 0 163
-45.1448 49.4397 40.2142 195 0 163
-35.3344 -4.88503 30.4038 195 0 163
-27.4409 35.4827 22.5103 195 0 163
-24.3393 0.44678 19.4087 195 0 163
22.0548 25.5711 -26.9855 195 0 163
-5.12357 -24.0432 0.19292 195 0 163
-24.6913 44.0438 19.7607 195 0 163
39.7612 -44.903 -44.6918 163 0 195
13.3556 10.2579 -18.2862 195 0 163
-38.4287 -22.9435 33.4981 195 0 163
-11.962 48.8755 7.03139 195 0 163
-17.5187 15.49 12.588 195 0 163
-43.1538 -0.48283 38.2232 195 0 163
-48.2555 39.3612 43.3249 195 0 163
0.576984 31.8901 -5.50765 195 0 163
34.906 -34.2628 -39.8366 163 0 195
24.3663 -8.15965 -29.2969 195 0 163
-45.0614 49.9194 40.1308 195 0 163
14.9316 28.7029 -19.8622 195 0 163
26.9837 39.1675 -31.9143 163 0 195
-11.9238 9.08357 6.99313 195 0 163
20.951 -40.2142 -25.8816 195 0 163
-9.05465 -37.0564 4.124 195 0 163
21.2552 -1.69075 -26.1858 195 0 163
-47.3974 -37.4019 42.4668 195 0 163
7.56235 -30.2244 -12.493 195 0 163
-44.5206 27.1652 39.59 195 0 163
-8.82133 16.5407 3.89068 195 0 163
31.5 7.42914 -36.4306 163 0 195
-13.9453 14.4384 9.01461 195 0 163
-21.6372 32.4106 16.7066 195 0 163
7.15944 -17.4188 -12.09 195 0 163
13.8133 29.7826 -18.7439 195 0 163
25.0049 48.7309 -29.9355 195 0 163
16.5334 -31.4297 -21.464 195 0 163
48.2125 -1.15027 -53.1431 163 0 195
-20.0705 14.2589 15.1399 195 0 163
-31.634 -2.19555 26.7034 195 0 163
32.0628 14.1305 -36.9934 163 0 195
34.5968 25.0609 -39.5274 163 0 195
-40.8077 28.9352 35.8771 195 0 163
-36.8718 -27.0356 31.9412 195 0 163
-38.84 32.0041 33.9094 195 0 163
25.8432 -1.59585 -30.7738 163 0 195
6.5977 0.07358 -11.5283 195 0 163
45.2748 -9.06665 -50.2054 163 0 195
-10.2837 17.777 5.35308 195 0 163
-30.241 14.9618 25.3104 195 0 163
-4.32396 28.1718 -0.60669 195 0 163
29.8066 8.57981 -34.7372 163 0 195
-28.323 -6.39725 23.3924 195 0 163
-33.7408 51.5958 28.8102 195 0 163
20.3276 49.0715 -25.2582 195 0 163
10.2461 27.6733 -15.1767 195 0 163
24.1928 26.3301 -29.1234 195 0 163
-15.9746 3.64916 11.0439 195 0 163
40.6024 23.6788 -45.533 163 0 195
47.7365 -0.87536 -52.6671 163 0 195
31.231 18.166 -36.1616 163 0 195
-14.8322 53.7578 9.90151 195 0 163
28.0711 -15.58 -33.0017 163 0 195
-26.0903 36.6479 21.1597 195 0 163
48.8567 12.0134 -53.7873 163 0 195
-28.5617 -33.6628 23.6311 195 0 163
43.9026 49.7084 -48.8332 163 0 195
-46.6064 -10.1842 41.6758 195 0 163
-14.2866 -34.5397 9.35597 195 0 163
5.14533 -19.4251 -10.0759 195 0 163
2.86021 38.4843 -7.79085 195 0 163
-1.41227 -11.6732 -3.51838 195 0 163
-21.5009 36.3623 16.5703 195 0 163
19.6878 49.6562 -24.6184 195 0 163
-9.4778 -40.8328 4.54715 195 0 163
45.616 -39.8092 -50.5466 163 0 195
-44.891 -15.2064 39.9604 195 0 163
3.66491 9.96624 -8.59555 195 0 163
18.5153 -33.1204 -23.4459 195 0 163
-10.4758 4.56424 5.54517 195 0 163
-44.3067 -37.3925 39.3761 195 0 163
-44.3917 38.4091 39.4611 195 0 163
-9.57469 14.8897 4.64404 195 0 163
-21.8871 -41.388 16.9565 195 0 163
-13.0879 26.5791 8.15724 195 0 163
-30.299 12.4494 25.3684 195 0 163
25.4998 -23.1323 -30.4305 195 0 163
46.7965 -6.71035 -51.7271 163 0 195
-12.7053 -7.70725 7.77469 195 0 163
18.5691 32.4955 -23.4997 195 0 163
32.7497 14.9425 -37.6803 163 0 195
35.2603 -36.5823 -40.1909 163 0 195
-32.6561 26.2442 27.7255 195 0 163
27.3251 36.763 -32.2557 163 0 195
41.0334 14.32 -45.9641 163 0 195
41.3574 -16.3388 -46.288 163 0 195
-17.3788 -3.04689 12.4482 195 0 163
-37.8155 45.849 32.8849 195 0 163
15.6885 -19.9187 -20.6191 195 0 163
-14.3614 -20.7955 9.4308 195 0 163
-16.873 29.5932 11.9424 195 0 163
3.87374 28.0529 -8.80435 195 0 163
43.8925 6.51696 -48.8231 163 0 195
49.4727 39.4543 -54.4033 163 0 195
-45.5639 40.1797 40.6333 195 0 163
27.5812 -39.931 -32.5118 163 0 195
0.104875 -12.6206 -5.03555 195 0 163
-8.85429 -36.0276 3.92364 195 0 163
-3.78241 29.4922 -1.14824 195 0 163
16.6001 5.5487 -21.5307 195 0 163
-48.8607 42.6281 43.9301 195 0 163
-1.73469 10.3499 -3.19596 195 0 163
-32.9687 37.9427 28.0381 195 0 163
-18.7864 -1.29642 13.8558 195 0 163
-9.87486 -10.8712 4.94421 195 0 163
4.50218 -6.20535 -9.43285 195 0 163
-8.83203 9.55058 3.90138 195 0 163
-47.0109 -23.6686 42.0803 195 0 163
33.4117 -41.7844 -38.3423 163 0 195
-16.6687 31.2569 11.7381 195 0 163
39.2775 15.2133 -44.2081 163 0 195
0.0378635 -10.6384 -4.96855 195 0 163
-39.5488 54.6801 34.6181 195 0 163
-2.40923 -25.5753 -2.52142 195 0 163
-4.18889 -7.84565 -0.74176 195 0 163
32.9373 32.062 -37.868 163 0 195
39.3383 8.46862 -44.2689 163 0 195
31.0829 41.4326 -36.0135 163 0 195
11.3764 -14.2663 -16.307 195 0 163
-23.655 -10.7021 18.7244 195 0 163
26.8972 40.2496 -31.8278 163 0 195
-16.3783 17.5928 11.4476 195 0 163
-19.7866 -14.7287 14.856 195 0 163
0.191248 0.32076 -5.12185 195 0 163
2.59555 52.4403 -7.52625 195 0 163
-46.0011 28.2344 41.0705 195 0 163
-33.7436 20.3843 28.813 195 0 163
-2.5599 42.237 -2.37075 195 0 163
44.0599 -15.7434 -48.9905 163 0 195
-33.6568 27.6389 28.7262 195 0 163
-29.2806 -23.6478 24.35 195 0 163
45.9558 53.9468 -50.8864 163 0 195
-4.41724 44.0634 -0.51341 195 0 163
7.57524 45.899 -12.5058 195 0 163
10.7122 31.8673 -15.6428 195 0 163
12.097 15.075 -17.0276 195 0 163
-44.6905 -18.4881 39.7599 195 0 163
-39.352 -28.9441 34.4214 195 0 163
-13.5541 19.3977 8.62346 195 0 163
49.3493 18.8895 -54.2799 163 0 195
6.74419 36.3903 -11.6748 195 0 163
-21.0347 3.14394 16.1041 195 0 163
-40.3325 -30.2022 35.4019 195 0 163
-16.2661 30.2347 11.3354 195 0 163
0.315532 28.209 -5.24615 195 0 163
0.990514 -19.5022 -5.92115 195 0 163
42.4504 -35.3869 -47.381 163 0 195
-14.2294 9.51054 9.29877 195 0 163
36.9707 -35.7276 -41.9013 163 0 195
30.0427 -7.80975 -34.9733 163 0 195
-17.5671 -15.1025 12.6364 195 0 163
14.6082 -27.6814 -19.5388 195 0 163
39.9339 -14.4846 -44.8645 163 0 195
-6.98923 -42.1087 2.05858 195 0 163
-33.758 -28.6163 28.8274 195 0 163
47.6664 -31.3 -52.597 163 0 195
2.12165 -33.632 -7.05235 195 0 163
-17.5792 -35.0222 12.6486 195 0 163
16.2666 51.2025 -21.1972 195 0 163
17.7189 15.984 -22.6495 195 0 163
-47.6567 -35.2163 42.7261 195 0 163
35.1157 35.9423 -40.0463 163 0 195
27.4317 45.575 -32.3623 163 0 195
10.5649 29.7904 -15.4955 195 0 163
-10.3714 -39.6504 5.44076 195 0 163
-14.0078 14.8599 9.07714 195 0 163
14.5985 49.7481 -19.5291 195 0 163
-10.4275 24.5929 5.49684 195 0 163
41.6211 -9.50265 -46.5517 163 0 195
-27.8556 -40.6189 22.925 195 0 163
41.4061 -10.9275 -46.3367 163 0 195
27.0099 -16.6183 -31.9405 163 0 195
3.42889 44.8087 -8.35955 195 0 163
2.19112 5.29732 -7.12175 195 0 163
24.8808 -16.6916 -29.8114 195 0 163
-46.0922 20.2789 41.1616 195 0 163
-2.26181 -13.3695 -2.66884 195 0 163
44.0245 -41.3522 -48.9551 163 0 195
-27.0495 -33.7913 22.1189 195 0 163
38.493 5.21463 -43.4236 163 0 195
10.3876 -20.6639 -15.3182 195 0 163
-40.9656 -16.3962 36.035 195 0 163
48.7905 13.2047 -53.7211 163 0 195
14.5491 50.3047 -19.4797 195 0 163
3.63908 1.0908 -8.56975 195 0 163
-26.118 22.0404 21.1874 195 0 163
-40.8011 -7.92155 35.8705 195 0 163
19.3439 40.463 -24.2745 195 0 163
43.8134 -3.84439 -48.744 163 0 195
44.2992 3.53967 -49.2298 163 0 195
-18.6028 -14.16 13.6721 195 0 163
-25.0754 10.6145 20.1448 195 0 163
-18.3743 8.73407 13.4436 195 0 163
-44.5497 42.3394 39.6191 195 0 163
-21.8185 -16.9926 16.8879 195 0 163
3.72502 -18.9607 -8.65565 195 0 163
-28.4451 38.9487 23.5145 195 0 163
-29.2236 -19.7003 24.293 195 0 163
-35.319 -13.532 30.3884 195 0 163
-23.6546 -22.7482 18.724 195 0 163
-18.9232 18.7192 13.9926 195 0 163
6.08244 24.4957 -11.013 195 0 163
-14.434 -2.67952 9.50338 195 0 163
32.9291 -16.8838 -37.8597 163 0 195
28.3419 39.8319 -33.2725 163 0 195
-34.0801 -44.8938 29.1495 195 0 163
33.3076 23.9393 -38.2382 163 0 195
-38.4417 46.1814 33.5111 195 0 163
-15.8084 24.1995 10.8778 195 0 163
16.8432 -20.4576 -21.7738 195 0 163
-41.0803 -25.0328 36.1497 195 0 163
-39.7859 2.68807 34.8552 195 0 163
14.528 -9.30845 -19.4586 195 0 163
-47.5241 1.32142 42.5935 195 0 163
-13.395 8.19225 8.46437 195 0 163
-35.4068 36.2352 30.4762 195 0 163
20.5356 3.08415 -25.4662 195 0 163
34.4467 -44.0226 -39.3773 163 0 195
-28.1335 -2.69595 23.2029 195 0 163
-36.0837 48.5722 31.1531 195 0 163
-45.2088 43.0314 40.2782 195 0 163
9.12119 -27.3174 -14.0518 195 0 163
-22.3509 42.6987 17.4203 195 0 163
-19.6737 45.6208 14.7431 195 0 163
4.38131 27.2767 -9.31195 195 0 163
7.2703 34.0391 -12.2009 195 0 163
36.4146 -4.7956 -41.3453 163 0 195
-21.3792 -41.2818 16.4486 195 0 163
11.5583 53.8624 -16.4889 195 0 163
-46.0513 -37.8387 41.1207 195 0 163
30.4148 -20.714 -35.3454 163 0 195
-18.8222 28.3903 13.8916 195 0 163
-7.92078 -37.8364 2.99013 195 0 163
-22.6241 31.2915 17.6935 195 0 163
10.472 -38.2141 -15.4026 195 0 163
-41.9625 19.0668 37.0319 195 0 163
-9.33364 45.8483 4.40299 195 0 163
9.11248 -25.7976 -14.0431 195 0 163
-15.1787 4.57562 10.2481 195 0 163
-34.6133 6.43226 29.6827 195 0 163
-6.04114 7.54825 1.11049 195 0 163
23.5737 28.6885 -28.5043 195 0 163
-41.2174 50.1379 36.2867 195 0 163
-38.6241 18.233 33.6934 195 0 163
41.8819 2.12655 -46.8125 163 0 195
-27.4609 -28.0179 22.5303 195 0 163
49.6871 -37.8284 -54.6177 163 0 195
9.86773 49.7163 -14.7983 195 0 163
16.4877 -29.0373 -21.4183 195 0 163
-8.05405 44.9729 3.1234 195 0 163
-31.0169 44.4686 26.0863 195 0 163
7.74361 1.50804 -12.6742 195 0 163
-49.8705 38.77 44.9398 195 0 163
-48.6981 48.7426 43.7675 195 0 163
-1.00348 24.875 -3.92717 195 0 163
48.7089 -28.1645 -53.6395 163 0 195
-15.421 16.5153 10.4904 195 0 163
-30.7597 -6.17355 25.8291 195 0 163
38.5364 -40.8546 -43.4671 163 0 195
14.3681 30.9755 -19.2987 195 0 163
-36.8193 -1.05707 31.8887 195 0 163
3.08308 37.3562 -8.01375 195 0 163
11.8503 12.7096 -16.7809 195 0 163
40.5069 46.1628 -45.4375 163 0 195
-0.263228 2.46391 -4.66742 195 0 163
30.301 53.3514 -35.2316 163 0 195
39.1756 29.5312 -44.1062 163 0 195
-16.7879 45.7805 11.8573 195 0 163
14.6289 -30.4621 -19.5595 195 0 163
-16.1766 27.1561 11.2459 195 0 163
28.3933 -9.93805 -33.3239 163 0 195
3.46254 -39.5376 -8.39315 195 0 163
8.0628 -43.1558 -12.9934 195 0 163
-13.142 40.5487 8.21131 195 0 163
17.8559 10.5799 -22.7865 195 0 163
-15.773 -7.09855 10.8424 195 0 163
2.63281 -14.0478 -7.56345 195 0 163
-1.60706 13.4754 -3.32359 195 0 163
29.7894 47.5682 -34.72 163 0 195
38.2717 -33.6054 -43.2023 163 0 195
7.04701 51.4706 -11.9776 195 0 163
-47.7077 43.4641 42.7771 195 0 163
-21.004 21.6451 16.0734 195 0 163
9.21005 23.4073 -14.1407 195 0 163
-41.7255 -18.8968 36.7949 195 0 163
-29.1596 -4.96804 24.229 195 0 163
-11.0878 26.8449 6.15719 195 0 163
-15.735 2.00832 10.8043 195 0 163
41.1269 -7.77775 -46.0575 163 0 195
-33.7808 -41.8687 28.8502 195 0 163
28.8907 -41.4278 -33.8213 163 0 195
-7.54401 -42.2942 2.61336 195 0 163
-47.5101 -38.4484 42.5795 195 0 163
-44.2716 47.1594 39.341 195 0 163
46.1367 27.2643 -51.0673 163 0 195
-7.15664 29.0661 2.22599 195 0 163
-3.61685 -41.1585 -1.3138 195 0 163
26.6143 -38.8013 -31.545 163 0 195
-37.0147 -36.5791 32.0841 195 0 163
22.3733 26.9278 -27.304 195 0 163
15.35 -38.1544 -20.2806 195 0 163
-36.0799 30.338 31.1493 195 0 163
-15.9282 -15.5879 10.9976 195 0 163
-32.1555 -20.5897 27.2249 195 0 163
49.275 9.20452 -54.2056 163 0 195
9.27527 19.4812 -14.2059 195 0 163
-44.1243 -37.4535 39.1937 195 0 163
-28.4004 -28.1593 23.4698 195 0 163
-49.6388 37.3545 44.7082 195 0 163
20.5921 52.2326 -25.5227 195 0 163
-36.403 27.5201 31.4724 195 0 163
23.3971 50.7541 -28.3277 195 0 163
14.358 54.3006 -19.2886 195 0 163
33.409 -18.4883 -38.3396 163 0 195
-23.5551 41.1353 18.6245 195 0 163
49.9102 -28.8805 -54.8408 163 0 195
14.2158 -33.114 -19.1464 195 0 163
37.9682 37.4562 -42.8988 163 0 195
24.4015 49.0932 -29.3321 195 0 163
-23.6995 -31.7289 18.7689 195 0 163
48.4691 -43.863 -53.3997 163 0 195
-16.6346 -3.3986 11.704 195 0 163
-15.8898 4.20181 10.9592 195 0 163
32.1059 47.6313 -37.0365 163 0 195
-17.0293 -28.459 12.0986 195 0 163
40.1288 13.6765 -45.0594 163 0 195
35.3452 38.7388 -40.2758 163 0 195
-26.8124 -20.566 21.8818 195 0 163
-5.87461 27.7297 0.94396 195 0 163
4.04693 40.6726 -8.97755 195 0 163
4.75908 34.6063 -9.68975 195 0 163
-38.653 37.6273 33.7224 195 0 163
24.5321 14.3925 -29.4627 195 0 163
-20.1113 -38.1371 15.1807 195 0 163
-32.8104 35.8332 27.8798 195 0 163
-2.49718 38.0775 -2.43347 195 0 163
-16.2967 49.6653 11.366 195 0 163
-42.1036 -22.939 37.173 195 0 163
-36.6677 7.48893 31.7371 195 0 163
40.7456 3.40213 -45.6762 163 0 195
9.44854 43.7595 -14.3791 195 0 163
-27.0411 -34.3698 22.1105 195 0 163
20.9469 40.0566 -25.8775 195 0 163
-39.4329 -8.23495 34.5023 195 0 163
2.6414 18.8385 -7.57205 195 0 163
12.8614 12.7305 -17.792 195 0 163
0.47029 -0.74256 -5.40095 195 0 163
40.7293 -19.9118 -45.6599 163 0 195
3.84325 51.4436 -8.77395 195 0 163
17.5213 -15.761 -22.4519 195 0 163
17.5341 -2.81633 -22.4647 195 0 163
32.9967 14.9934 -37.9273 163 0 195
-12.9053 6.7767 7.97465 195 0 163
46.5522 -32.7853 -51.4828 163 0 195
-10.5015 51.1694 5.57086 195 0 163
10.6616 -41.4633 -15.5922 195 0 163
-39.6501 -6.63025 34.7195 195 0 163
-41.4167 -37.7833 36.4861 195 0 163
4.0588 36.6683 -8.98945 195 0 163
-44.0145 36.5699 39.0839 195 0 163
2.21924 6.08518 -7.14985 195 0 163
5.63405 15.2259 -10.5646 195 0 163
-6.2151 12.4174 1.28445 195 0 163
14.0858 -26.7787 -19.0164 195 0 163
12.4321 36.0233 -17.3627 195 0 163
4.2546 -43.8693 -9.18525 195 0 163
40.1674 -22.3833 -45.098 163 0 195
4.23751 22.312 -9.16815 195 0 163
6.60959 -17.0502 -11.5402 195 0 163
-8.54048 -12.6744 3.60983 195 0 163
-0.934288 -28.1127 -3.99636 195 0 163
-25.9076 -6.16185 20.977 195 0 163
-19.3156 -36.288 14.3849 195 0 163
-12.2363 12.6489 7.30561 195 0 163
4.10549 -11.9386 -9.03615 195 0 163
-16.2949 33.0687 11.3642 195 0 163
21.0751 39.8916 -26.0057 195 0 163
29.9076 -3.6429 -34.8382 163 0 195
6.39306 6.54591 -11.3237 195 0 163
27.454 26.4259 -32.3846 163 0 195
3.25832 23.8545 -8.18895 195 0 163
-2.01677 -27.9629 -2.91388 195 0 163
41.3019 42.459 -46.2325 163 0 195
-14.1572 32.5104 9.22653 195 0 163
18.3905 -19.7179 -23.3211 195 0 163
-26.6831 16.651 21.7525 195 0 163
30.1578 42.3156 -35.0884 163 0 195
-42.4104 -33.4584 37.4798 195 0 163
-44.3392 -29.9661 39.4086 195 0 163
35.9975 -19.7067 -40.9281 163 0 195
-43.0691 54.371 38.1385 195 0 163
14.3092 -17.9214 -19.2398 195 0 163
-5.55174 28.8989 0.62109 195 0 163
-35.2072 48.4622 30.2766 195 0 163
20.8734 -27.639 -25.804 195 0 163
15.0413 -22.815 -19.9719 195 0 163
4.53367 -44.2726 -9.46435 195 0 163
47.6424 -6.59035 -52.573 163 0 195
-28.2982 17.3109 23.3676 195 0 163
37.9187 2.80878 -42.8493 163 0 195
-15.8072 11.0154 10.8766 195 0 163
-10.2543 -0.96301 5.32363 195 0 163
-37.248 12.8643 32.3174 195 0 163
-20.7645 41.6041 15.8339 195 0 163
40.5925 -16.5784 -45.5231 163 0 195
41.6037 34.5969 -46.5343 163 0 195
36.2021 44.6981 -41.1327 163 0 195
-45.3093 51.8948 40.3787 195 0 163
-0.65913 22.0566 -4.27152 195 0 163
-9.57941 29.6414 4.64876 195 0 163
44.7201 -40.8088 -49.6507 163 0 195
23.4778 -13.6707 -28.4084 195 0 163
24.0968 27.0481 -29.0274 195 0 163
-5.25075 11.8708 0.3201 195 0 163
19.7185 37.2454 -24.6491 195 0 163
9.93258 -34.3621 -14.8632 195 0 163
22.5481 -30.9656 -27.4787 195 0 163
11.0887 -8.45165 -16.0193 195 0 163
10.4434 31.6027 -15.374 195 0 163
-22.5144 -21.4432 17.5838 195 0 163
-28.1907 51.0297 23.2601 195 0 163
-8.54533 -2.82133 3.61468 195 0 163
6.84801 35.8658 -11.7786 195 0 163
-16.9461 33.8481 12.0154 195 0 163
-2.49186 30.5303 -2.43879 195 0 163
-1.65797 10.7119 -3.27268 195 0 163
-9.42856 11.9576 4.49791 195 0 163
12.8465 -18.9407 -17.7771 195 0 163
-1.90334 41.3992 -3.02731 195 0 163
30.6453 13.8526 -35.5759 163 0 195
30.7999 28.5164 -35.7305 163 0 195
-31.0165 -4.06723 26.0859 195 0 163
9.78856 5.43668 -14.7192 195 0 163
-45.1017 -19.5621 40.1711 195 0 163
-1.03246 54.3136 -3.89819 195 0 163
28.4703 49.5521 -33.4009 163 0 195
28.3931 -31.7945 -33.3237 163 0 195
39.8542 41.0508 -44.7848 163 0 195
27.1667 -38.9367 -32.0973 163 0 195
43.2968 21.9125 -48.2274 163 0 195
-42.4816 31.1582 37.551 195 0 163
26.6271 15.9506 -31.5577 163 0 195
-27.0146 -33.7553 22.084 195 0 163
-15.1582 21.6239 10.2276 195 0 163
23.8991 -37.955 -28.8297 195 0 163
-27.1346 -22.1946 22.204 195 0 163
15.28 51.7665 -20.2106 195 0 163
-38.2164 37.3819 33.2858 195 0 163
-29.6968 20.5448 24.7662 195 0 163
38.1219 2.69481 -43.0525 163 0 195
-3.07825 -26.0264 -1.8524 195 0 163
3.13073 30.7547 -8.06135 195 0 163
38.5002 25.2057 -43.4308 163 0 195
45.8488 4.89741 -50.7794 163 0 195
-3.49314 1.10629 -1.43751 195 0 163
-19.2149 16.4446 14.2842 195 0 163
-27.8169 -32.0402 22.8863 195 0 163
-19.8459 -5.48025 14.9153 195 0 163
-4.04007 4.25808 -0.89058 195 0 163
-28.5775 18.3083 23.6469 195 0 163
-35.0126 31.4998 30.082 195 0 163
-25.0234 13.801 20.0928 195 0 163
-35.9875 -24.0678 31.0569 195 0 163
-47.9677 -43.8996 43.0371 195 0 163
-12.8994 2.45501 7.96874 195 0 163
32.5527 -41.6393 -37.4833 163 0 195
10.8351 18.2942 -15.7657 195 0 163
-41.705 41.6263 36.7743 195 0 163
17.6554 -35.8163 -22.586 195 0 163
-11.5791 19.0501 6.64842 195 0 163
12.7601 -4.39202 -17.6907 195 0 163
-46.2338 7.71464 41.3032 195 0 163
-1.57773 29.1415 -3.35292 195 0 163
44.423 6.60274 -49.3536 163 0 195
-22.4275 -7.67255 17.4969 195 0 163
9.86804 20.2777 -14.7986 195 0 163
35.3186 -20.9192 -40.2492 163 0 195
36.536 10.456 -41.4666 163 0 195
-35.1337 -38.7159 30.2031 195 0 163
1.47952 15.3367 -6.41015 195 0 163
