ply
format ascii 1.0
element vertex 1297
property float x
property float y
property float z
property uchar red
property uchar green
property uchar blue
end_header
-43.5458 33.5512 34.4194 114 158 163
8.66717 -18.6618 21.467 114 158 163
37.2333 -47.2279 21.9715 114 158 163
-18.8006 8.80598 -0.95945 114 158 163
31.1041 -41.0987 54.5029 114 158 163
-26.6813 16.6867 10.2277 114 158 163
13.766 -23.7606 0.61165 114 158 163
10.3843 -20.3789 58.216 114 158 163
-25.2083 15.2137 14.9054 114 158 163
47.9477 -57.9423 51.1475 114 158 163
-13.933 3.93839 -4.78345 114 158 163
-39.6196 29.625 2.13355 114 158 163
32.1477 -42.1423 39.9904 114 158 163
0.418787 -10.4134 30.8096 114 158 163
1.3922 -11.3868 12.9964 114 158 163
17.5838 -27.5784 81.6721 114 158 163
-23.8301 13.8355 12.1722 114 158 163
-18.2899 8.29527 33.9554 114 158 163
-7.38382 -2.6108 51.5879 114 158 163
-9.02361 -0.971 11.1973 114 158 163
-20.4603 10.4657 80.1188 114 158 163
-37.7252 27.7306 47.7922 114 158 163
32.2113 -42.2059 30.5732 114 158 163
38.7587 -48.7533 51.4295 114 158 163
34.9278 -44.9224 30.269 114 158 163
41.5045 -51.4991 31.2747 114 158 163
-16.2271 6.23249 18.6628 114 158 163
-29.7935 19.7989 48.4901 114 158 163
-9.91127 -0.0833 -8.53665 114 158 163
3.2024 -13.197 9.02575 114 158 163
28.3047 -38.2993 26.7284 114 158 163
37.0194 -47.014 15.0609 114 158 163
49.1362 -59.1308 -11.3401 114 158 163
28.7124 -38.707 -12.5594 114 158 163
27.3659 -37.3605 15.2324 114 158 163
-44.8114 34.8168 -15.8052 114 158 163
22.9494 -32.944 64.7523 114 158 163
-39.4862 29.4916 -10.199 114 158 163
30.7376 -40.7322 -11.3861 114 158 163
13.5059 -23.5005 50.8855 114 158 163
5.1895 -15.1841 8.23365 114 158 163
-30.752 20.7574 63.0645 114 158 163
42.4183 -52.4129 -0.67615 114 158 163
1.65315 -11.6477 8.63795 114 158 163
49.9463 -59.9409 46.5291 114 158 163
-23.9485 13.9539 -6.88395 114 158 163
15.1807 -25.1753 18.9398 114 158 163
-6.6123 -3.3823 75.8034 114 158 163
-28.9627 18.9681 8.61805 114 158 163
-49.7154 39.7208 29.6671 114 158 163
12.8138 -22.8084 65.3692 114 158 163
17.8665 -27.8611 -15.0528 114 158 163
-41.9575 31.9629 -3.27305 114 158 163
13.3725 -23.3671 26.5032 114 158 163
15.6888 -25.6834 -15.5354 114 158 163
45.4275 -55.4221 71.3432 114 158 163
4.37013 -14.3647 65.9823 114 158 163
11.4212 -21.4158 26.869 114 158 163
-43.8543 33.8597 7.37595 114 158 163
14.0357 -24.0303 20.0148 114 158 163
9.04483 -19.0394 61.9517 114 158 163
-44.0854 34.0908 43.051 114 158 163
-37.4544 27.4598 45.3932 114 158 163
14.6647 -24.6593 2.60515 114 158 163
44.9356 -54.9302 20.8458 114 158 163
-23.0788 13.0842 50.1268 114 158 163
-29.7646 19.77 -17.7165 114 158 163
-15.2429 5.24834 19.6203 114 158 163
37.4318 -47.4264 74.8884 114 158 163
22.7413 -32.7359 17.2742 114 158 163
-5.07119 -4.9234 -0.71375 114 158 163
-0.108539 -9.8861 61.532 114 158 163
-40.411 30.4164 6.75355 114 158 163
26.7677 -36.7623 74.495 114 158 163
22.097 -32.0916 45.2235 114 158 163
-12.2071 2.21253 27.7524 114 158 163
-21.2582 11.2636 61.6294 114 158 163
32.1326 -42.1272 33.3254 114 158 163
44.9287 -54.9233 43.1097 114 158 163
-33.2992 23.3046 21.8 114 158 163
13.8607 -23.8553 -3.72355 114 158 163
-20.8959 10.9013 15.644 114 158 163
-41.1346 31.14 35.5682 114 158 163
-13.0411 3.04652 43.4885 114 158 163
-45.8417 35.8471 79.8832 158 114 163
20.1875 -30.1821 64.44 114 158 163
28.3686 -38.3632 59.6195 114 158 163
35.2596 -45.2542 51.8966 114 158 163
-25.0073 15.0127 48.2295 114 158 163
-20.3266 10.332 60.4322 114 158 163
28.9292 -38.9238 13.5382 114 158 163
-22.8186 12.824 2.56195 114 158 163
34.4422 -44.4368 17.4953 114 158 163
33.5078 -43.5024 16.8635 114 158 163
13.4842 -23.4788 13.7287 114 158 163
45.8766 -55.8712 50.3364 114 158 163
47.826 -57.8206 11.2586 114 158 163
48.7056 -58.7002 66.3718 114 158 163
-39.7267 29.7321 56.9942 114 158 163
-38.6908 28.6962 -4.08955 114 158 163
-18.5194 8.52482 5.53015 114 158 163
18.3077 -28.3023 64.7385 114 158 163
-35.8775 25.8829 29.7892 114 158 163
-33.1922 23.1976 -8.48925 114 158 163
1.01758 -11.0122 22.9739 114 158 163
48.8563 -58.8509 50.5834 114 158 163
7.78993 -17.7845 -3.02005 114 158 163
-45.4434 35.4488 60.6644 114 158 163
28.168 -38.1626 58.4715 114 158 163
-9.15996 -0.8346 58.0715 114 158 163
40.4002 -50.3948 20.472 114 158 163
-39.0704 29.0758 4.20435 114 158 163
-19.3751 9.38048 15.056 114 158 163
5.36679 -15.3614 -11.4415 114 158 163
-35.2726 25.278 30.2446 114 158 163
46.2532 -56.2478 16.6367 114 158 163
33.4219 -43.4165 11.893 114 158 163
21.9407 -31.9353 12.9939 114 158 163
-2.59768 -7.3969 39.6343 114 158 163
-16.4789 6.48433 -11.1528 114 158 163
31.4299 -41.4245 35.4667 114 158 163
-4.1315 -5.8631 61.9278 114 158 163
-24.1899 14.1953 -17.56 114 158 163
23.2055 -33.2001 7.51845 114 158 163
38.4407 -48.4353 32.953 114 158 163
-41.1568 31.1622 15.6375 114 158 163
-47.4239 37.4293 52.2961 114 158 163
-44.5003 34.5057 42.3652 114 158 163
11.8345 -21.8291 26.7215 114 158 163
20.6571 -30.6517 -12.4476 114 158 163
13.8783 -23.8729 41.4194 114 158 163
13.9343 -23.9289 57.7502 114 158 163
-19.7267 9.73213 28.345 114 158 163
-19.2262 9.23164 51.1212 114 158 163
-21.3605 11.3659 -0.72965 114 158 163
21.4383 -31.4329 17.7094 114 158 163
0.763301 -10.7579 66.5298 114 158 163
-15.0909 5.09634 42.4277 114 158 163
21.0039 -30.9985 63.1957 114 158 163
-21.4268 11.4322 42.1657 114 158 163
36.6167 -46.6113 37.7172 114 158 163
-40.2206 30.226 -16.5402 114 158 163
28.97 -38.9646 69.9133 114 158 163
-11.7581 1.76352 -3.94015 114 158 163
49.5813 -59.5759 55.9667 114 158 163
-9.8079 -0.1867 70.909 114 158 163
41.4262 -51.4208 5.78645 114 158 163
31.1503 -41.1449 43.1206 114 158 163
-2.14098 -7.8536 80.0385 114 158 163
-32.6281 22.6335 -1.83695 114 158 163
-25.509 15.5144 72.3305 114 158 163
26.545 -36.5396 46.7944 114 158 163
9.19627 -19.1909 -12.889 114 158 163
-9.87263 -0.122 28.6613 114 158 163
49.7995 -59.7941 61.2664 114 158 163
1.37512 -11.3697 77.9264 114 158 163
26.99 -36.9846 43.3646 114 158 163
0.879307 -10.8739 -8.15005 114 158 163
-35.576 25.5814 73.8851 114 158 163
-21.8651 11.8705 -7.87465 114 158 163
4.59912 -14.5937 80.9125 114 158 163
-21.5195 11.5249 17.5642 114 158 163
-35.1677 25.1731 -11.6643 114 158 163
-1.02692 -8.9677 -6.08575 114 158 163
34.0487 -44.0433 -1.86145 114 158 163
-12.5742 2.57958 63.0859 114 158 163
28.8398 -38.8344 7.57985 114 158 163
-23.584 13.5894 15.6383 114 158 163
-9.88262 -0.112 22.9667 114 158 163
22.4369 -32.4315 25.8257 114 158 163
-17.5984 7.60382 65.1262 114 158 163
14.7657 -24.7603 4.09295 114 158 163
-27.612 17.6174 -5.14405 114 158 163
14.5315 -24.5261 52.8507 114 158 163
-40.3672 30.3726 72.0272 114 158 163
25.8568 -35.8514 76.2304 114 158 163
9.73277 -19.7274 50.033 114 158 163
-46.118 36.1234 -8.90065 114 158 163
-26.0325 16.0379 77.6586 114 158 163
26.8888 -36.8834 72.3226 114 158 163
-20.9804 10.9858 50.1015 114 158 163
-23.1647 13.1701 52.9234 114 158 163
0.507265 -10.5019 60.3222 114 158 163
40.7634 -50.758 6.46615 114 158 163
-16.6824 6.68777 59.6504 114 158 163
47.5361 -57.5307 10.2335 114 158 163
37.7349 -47.7295 33.2152 114 158 163
-1.25454 -8.7401 81.5409 114 158 163
28.4627 -38.4573 -17.5673 114 158 163
9.71455 -19.7091 -10.1505 114 158 163
34.3438 -44.3384 75.9444 114 158 163
6.11109 -16.1057 34.4437 114 158 163
-31.373 21.3784 6.34695 114 158 163
37.703 -47.6976 62.3387 114 158 163
38.7644 -48.759 -14.1066 114 158 163
42.1949 -52.1895 -14.7106 114 158 163
-12.6236 2.62896 59.576 114 158 163
-42.4606 32.466 17.2452 114 158 163
-19.489 9.49443 -5.16045 114 158 163
-4.49061 -5.504 71.3885 114 158 163
34.7538 -44.7484 37.797 114 158 163
3.21808 -13.2127 31.0441 114 158 163
-17.2383 7.24372 23.3872 114 158 163
-41.2124 31.2178 53.0294 114 158 163
-30.2583 20.2637 69.6507 114 158 163
16.8922 -26.8868 -6.16165 114 158 163
-20.9704 10.9758 7.90765 114 158 163
-24.5538 14.5592 55.7578 114 158 163
-6.27917 -3.7154 23.3769 114 158 163
6.92784 -16.9224 72.1885 114 158 163
38.189 -48.1836 61.7274 114 158 163
-31.5782 21.5836 -0.17225 114 158 163
24.8448 -34.8394 21.867 114 158 163
31.445 -41.4396 15.1454 114 158 163
-3.549 -6.4456 15.0344 114 158 163
-17.7509 7.75634 -16.772 114 158 163
17.4756 -27.4702 -12.6297 114 158 163
-33.8833 23.8887 31.4738 114 158 163
-8.44252 -1.5521 31.4262 114 158 163
-17.932 7.93744 14.2741 114 158 163
-27.1462 17.1516 -8.55795 114 158 163
-15.4012 5.40658 19.7654 114 158 163
-39.8942 29.8996 -15.2526 114 158 163
37.8074 -47.802 -11.1896 114 158 163
-48.9505 38.9559 -13.1175 114 158 163
43.0811 -53.0757 15.3952 114 158 163
9.32935 -19.3239 76.9711 114 158 163
35.3794 -45.374 17.6444 114 158 163
-39.3608 29.3662 39.9187 114 158 163
48.0993 -58.0939 37.6778 114 158 163
-43.8573 33.8627 -15.0927 114 158 163
43.413 -53.4076 4.99725 114 158 163
18.9427 -28.9373 68.445 114 158 163
16.6134 -26.608 48.5399 114 158 163
-4.23329 -5.7613 21.8914 114 158 163
-46.7365 36.7419 1.11285 114 158 163
7.52295 -17.5175 -13.018 114 158 163
2.98563 -12.9802 74.3445 114 158 163
30.2029 -40.1975 4.52535 114 158 163
15.3512 -25.3458 64.2558 114 158 163
22.125 -32.1196 4.74505 114 158 163
-26.1071 16.1125 0.15855 114 158 163
-42.7267 32.7321 37.8379 114 158 163
4.26596 -14.2606 52.7834 114 158 163
14.4583 -24.4529 10.418 114 158 163
-6.25902 -3.7356 55.5463 114 158 163
19.1913 -29.1859 -10.5476 114 158 163
-10.3068 0.31216 77.6198 114 158 163
-21.5674 11.5728 59.2507 114 158 163
23.0006 -32.9952 27.7731 114 158 163
41.852 -51.8466 51.1501 114 158 163
34.8834 -44.878 -7.90925 114 158 163
13.491 -23.4856 -8.91685 114 158 163
-39.8086 29.814 10.1036 114 158 163
-9.15469 -0.8399 42.6882 114 158 163
-48.4232 38.4286 70.0959 114 158 163
16.3968 -26.3914 -16.6906 114 158 163
-30.3977 20.4031 18.4525 114 158 163
-27.5172 17.5226 31.1802 114 158 163
43.2228 -53.2174 0.62605 114 158 163
-1.34461 -8.65 47.632 114 158 163
29.7367 -39.7313 3.82545 114 158 163
18.9556 -28.9502 -10.496 114 158 163
8.97375 -18.9683 -2.64205 114 158 163
31.3371 -41.3317 -13.3216 114 158 163
-49.4796 39.485 -12.5234 114 158 163
-9.09941 -0.8952 22.0503 114 158 163
41.1038 -51.0984 26.5927 114 158 163
3.46987 -13.4645 17.3848 114 158 163
33.2358 -43.2304 22.8716 114 158 163
32.4056 -42.4002 60.617 114 158 163
-39.6548 29.6602 25.7147 114 158 163
12.3531 -22.3477 -15.2001 114 158 163
-45.6673 35.6727 21.3169 114 158 163
46.4468 -56.4414 81.3178 114 158 163
9.12333 -19.1179 25.8911 114 158 163
-25.1405 15.1459 54.9128 114 158 163
30.5853 -40.5799 62.7689 114 158 163
9.67577 -19.6704 27.7704 114 158 163
4.01834 -14.0129 -5.83585 114 158 163
-45.0461 35.0515 61.4901 114 158 163
36.2587 -46.2533 31.3879 114 158 163
-44.9164 34.9218 22.0558 114 158 163
-21.3013 11.3067 23.2988 114 158 163
6.58048 -16.5751 -17.1062 114 158 163
9.11547 -19.1101 -3.12825 114 158 163
7.25797 -17.2526 71.2455 114 158 163
-8.67364 -1.321 -16.5824 114 158 163
-40.1438 30.1492 36.975 114 158 163
-10.9947 1.00007 68.0264 114 158 163
25.0902 -35.0848 55.0373 114 158 163
-5.68108 -4.3135 -9.05585 114 158 163
37.7974 -47.792 77.798 114 158 163
-18.7161 8.72151 40.9687 114 158 163
33.429 -43.4236 64.9171 114 158 163
5.7003 -15.6949 4.41615 114 158 163
44.153 -54.1476 15.256 114 158 163
46.7638 -56.7584 49.9187 114 158 163
41.9923 -51.9869 -3.22225 114 158 163
-36.2697 26.2751 74.0502 114 158 163
-49.348 39.3534 69.8812 114 158 163
15.8545 -25.8491 -0.55665 114 158 163
-6.6359 -3.3587 77.7812 114 158 163
22.1807 -32.1753 -12.9084 114 158 163
49.0184 -59.013 72.482 114 158 163
-21.5375 11.5429 50.2894 114 158 163
39.8072 -49.8018 -3.77935 114 158 163
5.76006 -15.7547 72.3828 114 158 163
-4.71201 -5.2826 19.8681 114 158 163
9.94956 -19.9442 78.2327 114 158 163
28.0276 -38.0222 -5.50565 114 158 163
-9.96865 -0.0259 -4.62645 114 158 163
28.6246 -38.6192 79.572 114 158 163
12.9649 -22.9595 65.2499 114 158 163
25.4582 -35.4528 58.7903 114 158 163
-7.64985 -2.3448 -11.1746 114 158 163
5.25581 -15.2504 16.042 114 158 163
11.1524 -21.147 -1.14515 114 158 163
-25.1844 15.1898 -0.85455 114 158 163
-24.4277 14.4331 -10.0306 114 158 163
24.835 -34.8296 82.0259 114 158 163
-37.9589 27.9643 35.5018 114 158 163
-48.8588 38.8642 75.2657 158 114 163
29.7267 -39.7213 63.1178 114 158 163
35.2705 -45.2651 23.7675 114 158 163
27.8622 -37.8568 11.0691 114 158 163
47.732 -57.7266 21.5629 114 158 163
-48.8171 38.8225 40.5973 114 158 163
44.4318 -54.4264 -6.91605 114 158 163
-33.8866 23.892 81.6058 158 114 163
-23.8526 13.858 -14.0806 114 158 163
27.3498 -37.3444 80.8983 114 158 163
22.0227 -32.0173 13.385 114 158 163
-40.5563 30.5617 69.1897 114 158 163
-4.36803 -5.6266 76.3588 114 158 163
-2.2845 -7.7101 18.3549 114 158 163
10.2117 -20.2063 -12.6552 114 158 163
-19.895 9.90042 74.8725 114 158 163
6.50993 -16.5045 76.6087 114 158 163
12.6084 -22.603 29.1389 114 158 163
44.1018 -54.0964 10.9846 114 158 163
17.7595 -27.7541 42.7265 114 158 163
38.005 -47.9996 24.8127 114 158 163
-30.8215 20.8269 5.59475 114 158 163
30.0438 -40.0384 15.9748 114 158 163
32.7196 -42.7142 50.1709 114 158 163
-23.7655 13.7709 76.1418 114 158 163
20.5009 -30.4955 21.5767 114 158 163
-28.8116 18.817 80.3143 158 114 163
-19.4078 9.41317 44.2571 114 158 163
-32.4204 22.4258 -7.47475 114 158 163
-8.74685 -1.2477 44.06 114 158 163
1.89482 -11.8894 60.6148 114 158 163
-22.6019 12.6073 33.7865 114 158 163
28.7078 -38.7024 31.0182 114 158 163
46.7622 -56.7568 60.5531 114 158 163
14.0565 -24.0511 48.9971 114 158 163
-49.6394 39.6448 23.1561 114 158 163
-36.7968 26.8022 16.3249 114 158 163
-4.25356 -5.741 0.67035 114 158 163
40.065 -50.0596 40.7054 114 158 163
-21.9959 12.0013 42.7793 114 158 163
28.2198 -38.2144 18.7401 114 158 163
31.7957 -41.7903 50.9017 114 158 163
24.909 -34.9036 46.7095 114 158 163
-12.415 2.42043 64.6338 114 158 163
0.206953 -10.2016 75.6054 114 158 163
-30.1211 20.1265 -10.4561 114 158 163
-30.7668 20.7722 36.3797 114 158 163
-25.6475 15.6529 13.3722 114 158 163
-33.24 23.2454 52.0661 114 158 163
-9.65339 -0.3412 77.0079 114 158 163
25.1598 -35.1544 40.9856 114 158 163
4.40031 -14.3949 66.7999 114 158 163
-47.9586 37.964 65.8615 114 158 163
0.402468 -10.3971 36.409 114 158 163
24.0589 -34.0535 0.72795 114 158 163
32.0352 -42.0298 -4.74325 114 158 163
21.6442 -31.6388 18.7299 114 158 163
26.5546 -36.5492 47.9403 114 158 163
-20.3346 10.34 27.1741 114 158 163
-28.1559 18.1613 81.4153 158 114 163
27.9383 -37.9329 75.2601 114 158 163
27.0948 -37.0894 34.9236 114 158 163
32.4629 -42.4575 22.5288 114 158 163
-1.09236 -8.9022 -16.3709 114 158 163
-21.6516 11.657 24.4267 114 158 163
26.3007 -36.2953 18.9991 114 158 163
-17.0244 7.02979 -1.51835 114 158 163
-41.235 31.2404 24.8653 114 158 163
-10.9959 1.0013 -15.1922 114 158 163
-33.8338 23.8392 -1.49015 114 158 163
-42.2896 32.295 60.8879 114 158 163
21.7851 -31.7797 17.2796 114 158 163
-40.5776 30.583 75.4171 114 158 163
2.28961 -12.2842 7.70665 114 158 163
35.9535 -45.9481 14.335 114 158 163
1.53827 -11.5329 15.5384 114 158 163
-48.1502 38.1556 -17.4523 114 158 163
-1.6529 -8.3417 12.8372 114 158 163
-39.7231 29.7285 37.2679 114 158 163
47.7906 -57.7852 79.3778 114 158 163
23.1458 -33.1404 73.0697 114 158 163
-46.0202 36.0256 11.7351 114 158 163
27.382 -37.3766 37.3856 114 158 163
26.0898 -36.0844 57.164 114 158 163
-23.1834 13.1888 34.9693 114 158 163
5.93376 -15.9284 -6.95785 114 158 163
-42.2925 32.2979 68.34 114 158 163
3.85808 -13.8527 22.6893 114 158 163
33.8211 -43.8157 24.1316 114 158 163
19.5283 -29.5229 37.3823 114 158 163
12.5895 -22.5841 77.5822 114 158 163
-45.7796 35.785 13.9927 114 158 163
-31.2524 21.2578 48.8532 114 158 163
-0.997354 -8.9972 -16.6081 114 158 163
26.4094 -36.404 76.0233 114 158 163
-38.4514 28.4568 -13.113 114 158 163
2.94443 -12.939 52.8478 114 158 163
-40.9793 30.9847 65.0129 114 158 163
30.251 -40.2456 67.0245 114 158 163
12.007 -22.0016 54.293 114 158 163
-21.9929 11.9983 -15.3421 114 158 163
29.8875 -39.8821 73.8572 114 158 163
2.34732 -12.3419 64.5574 114 158 163
-35.1366 25.142 -10.2829 114 158 163
-7.09549 -2.8991 18.7811 114 158 163
8.27226 -18.2669 56.3226 114 158 163
-26.012 16.0174 -17.0737 114 158 163
12.8784 -22.873 1.31075 114 158 163
36.5028 -46.4974 81.2707 114 158 163
-22.6131 12.6185 8.67785 114 158 163
10.7094 -20.704 -2.23715 114 158 163
39.2568 -49.2514 17.1157 114 158 163
-44.957 34.9624 37.3558 114 158 163
-19.7882 9.79356 16.261 114 158 163
-46.9105 36.9159 78.7546 158 114 163
-42.6357 32.6411 -17.3511 114 158 163
-26.1627 16.1681 15.9694 114 158 163
37.4171 -47.4117 66.3779 114 158 163
-24.3285 14.3339 41.4497 114 158 163
39.4767 -49.4713 24.9693 114 158 163
-19.1498 9.15521 30.3744 114 158 163
-16.6045 6.60993 77.3243 114 158 163
37.3819 -47.3765 65.9976 114 158 163
21.0894 -31.084 61.7938 114 158 163
-37.6712 27.6766 51.0429 114 158 163
15.2883 -25.2829 21.171 114 158 163
-23.916 13.9214 81.207 158 114 163
12.6955 -22.6901 25.339 114 158 163
48.9971 -58.9917 50.2811 114 158 163
-24.7763 14.7817 19.1234 114 158 163
30.6024 -40.597 -10.8324 114 158 163
-23.4995 13.5049 -4.10135 114 158 163
-10.6925 0.6979 7.05835 114 158 163
-20.0843 10.0897 -15.8688 114 158 163
9.91597 -19.9106 28.2603 114 158 163
-24.0018 14.0072 17.1212 114 158 163
19.8996 -29.8942 15.556 114 158 163
48.513 -58.5076 0.93145 114 158 163
-47.6486 37.654 63.5923 114 158 163
-10.2381 33.2541 -11.171 114 158 163
-11.1298 -16.3065 38.3896 114 158 163
-49.616 56.9903 -34.9072 114 158 163
-49.8875 -16.1555 38.2386 114 158 163
-38.6306 20.7763 1.30685 114 158 163
48.767 -39.5484 61.6315 114 158 163
-26.6754 -25.8775 47.9606 114 158 163
10.7504 42.803 -20.7199 114 158 163
10.7441 -30.5252 52.6084 114 158 163
47.2748 -17.7612 39.8443 114 158 163
-30.653 55.5526 -33.4695 114 158 163
21.2093 47.1031 -25.02 114 158 163
-8.45291 35.0639 -12.9808 114 158 163
-3.08882 -0.5884 22.6716 114 158 163
0.645891 59.0154 -36.9323 114 158 163
-33.0236 -29.2551 51.3382 114 158 163
22.5246 0.05255 22.0306 114 158 163
16.0687 53.3495 -31.2664 114 158 163
-45.3901 27.3075 -5.22435 114 158 163
38.7489 -25.8601 47.9432 114 158 163
-20.9774 38.9628 -16.8797 114 158 163
7.54748 22.5064 -0.42325 114 158 163
37.0868 30.7606 -8.67745 114 158 163
-9.00058 -14.1654 36.2485 114 158 163
-16.5882 -18.7392 40.8223 114 158 163
-44.988 7.80392 14.2792 114 158 163
-41.77 19.0748 3.00835 114 158 163
-13.383 19.9869 2.09625 114 158 163
48.3084 -35.6754 57.7585 114 158 163
-8.63268 41.039 -18.9559 114 158 163
-16.65 58.3908 -36.3077 114 158 163
-20.9095 24.5126 -2.42945 114 158 163
-38.0056 47.4075 -25.3244 114 158 163
-18.2556 -9.4449 31.528 114 158 163
-12.5696 22.0248 0.05835 114 158 163
-27.2509 36.4742 -14.3911 114 158 163
29.8662 -14.1331 36.2162 114 158 163
-21.8062 -5.4792 27.5623 114 158 163
-32.8445 0.55495 21.5281 114 158 163
24.7667 -24.547 46.6302 114 158 163
-33.4607 23.211 -1.12785 114 158 163
-35.8302 -11.7555 33.8387 114 158 163
-32.1226 -31.386 53.4691 114 158 163
-43.9071 -32.3809 54.4641 114 158 163
46.8251 -16.7999 38.8831 114 158 163
13.0392 -37.3353 59.4184 114 158 163
-12.574 15.8183 6.26485 114 158 163
-15.9966 31.0711 -8.98795 114 158 163
44.3457 -8.7603 30.8435 114 158 163
19.4062 13.2383 8.84485 114 158 163
-40.2566 55.4745 -33.3914 114 158 163
33.7561 24.0739 -1.99075 114 158 163
-32.5596 8.68964 13.3935 114 158 163
43.6844 -28.9659 51.049 114 158 163
-42.5419 14.1502 7.93295 114 158 163
-31.8561 0.02363 22.0595 114 158 163
-12.582 50.1184 -28.0353 114 158 163
-33.6855 -11.417 33.5001 114 158 163
30.7171 19.3647 2.71835 114 158 163
10.5088 -34.1613 56.2445 114 158 163
30.2449 14.7157 7.36745 114 158 163
-5.91457 0.97754 21.1056 114 158 163
-6.0294 19.033 3.05015 114 158 163
39.879 9.85598 12.2271 114 158 163
2.3417 -24.0028 46.0859 114 158 163
33.7214 -12.8551 34.9382 114 158 163
32.3661 57.5351 -35.4519 114 158 163
10.9105 52.5942 -30.5111 114 158 163
-18.245 -33.1574 55.2405 114 158 163
27.5983 -7.0801 29.1632 114 158 163
-40.6791 9.64087 12.4422 114 158 163
37.2689 19.704 2.37915 114 158 163
-33.0355 21.4052 0.67795 114 158 163
36.8501 -10.289 32.3722 114 158 163
13.3034 -19.0187 41.1019 114 158 163
35.3511 -6.3592 28.4424 114 158 163
-7.83105 -19.7481 41.8312 114 158 163
-31.844 59.7363 -37.6531 114 158 163
31.4498 -24.5111 46.5942 114 158 163
7.67662 -33.4636 55.5467 114 158 163
5.1705 2.72123 19.3619 114 158 163
-34.3658 -27.192 49.2751 114 158 163
37.55 -26.7688 48.8519 114 158 163
15.6258 -8.1779 30.261 114 158 163
-20.8838 59.9395 -37.8564 114 158 163
30.97 39.2994 -17.2163 114 158 163
15.7435 28.07 -5.98685 114 158 163
29.7525 25.3353 -3.25215 114 158 163
16.5981 50.25 -28.1669 114 158 163
45.8694 44.3826 -22.2995 114 158 163
-31.4062 -30.392 52.4751 114 158 163
15.5696 37.4562 -15.3731 114 158 163
-16.8161 37.9093 -15.8262 114 158 163
-15.5037 1.29827 20.7848 114 158 163
23.5385 29.8084 -7.72525 114 158 163
3.10745 -30.9666 53.0497 114 158 163
6.23471 56.6021 -34.519 114 158 163
-16.1654 -9.7109 31.7941 114 158 163
38.2565 12.7344 9.34875 114 158 163
-12.9697 -39.448 61.5311 114 158 163
7.45087 53.8297 -31.7466 114 158 163
-42.6181 28.1874 -6.10425 114 158 163
-46.1933 13.5688 8.51435 114 158 163
-40.5267 -21.9089 43.992 114 158 163
-31.7288 -18.7231 40.8063 114 158 163
39.5807 26.6641 -4.58095 114 158 163
-19.0276 13.0516 9.03155 114 158 163
-45.5699 24.1954 -2.11225 114 158 163
-35.3103 -21.9444 44.0275 114 158 163
17.7467 -36.6675 58.7506 114 158 163
32.2862 -20.0127 42.0958 114 158 163
8.95752 59.9125 -37.8294 114 158 163
-48.3362 32.6886 -10.6055 114 158 163
-18.6184 -22.8286 44.9117 114 158 163
-26.456 -28.2188 50.3019 114 158 163
-23.985 -19.6075 41.6907 114 158 163
-16.14 -10.9615 33.0447 114 158 163
3.99382 34.7937 -12.7106 114 158 163
-39.9848 -10.2184 32.3016 114 158 163
-33.427 4.28642 17.7967 114 158 163
44.2843 -2.9639 25.047 114 158 163
-7.70479 17.7451 4.33805 114 158 163
-47.8594 56.454 -34.3709 114 158 163
-0.196729 -33.9293 56.0125 114 158 163
-4.67561 17.4699 4.61325 114 158 163
38.8612 -17.9978 40.081 114 158 163
9.75694 7.94193 14.1412 114 158 163
-48.6623 -32.25 54.3331 114 158 163
14.5364 -21.4717 43.5548 114 158 163
-30.3817 45.4681 -23.385 114 158 163
-36.3679 -2.3092 24.3924 114 158 163
14.1193 28.3789 -6.29575 114 158 163
-47.1702 10.2207 11.8624 114 158 163
11.2036 46.008 -23.9249 114 158 163
6.67417 37.6463 -15.5632 114 158 163
-18.9421 -12.7465 34.8297 114 158 163
-27.167 21.0665 1.01665 114 158 163
-12.2791 31.6966 -9.61345 114 158 163
19.9545 59.1772 -37.0941 114 158 163
-20.1749 -31.4083 53.4915 114 158 163
26.0835 -4.6983 26.7814 114 158 163
-26.1424 11.7133 10.3698 114 158 163
34.59 26.0273 -3.94415 114 158 163
-5.35565 -16.9705 39.0537 114 158 163
12.6243 30.2316 -8.14845 114 158 163
-13.7243 -8.7489 30.832 114 158 163
-20.4061 22.3567 -0.27355 114 158 163
-33.0443 -15.5103 37.5935 114 158 163
24.6871 28.9364 -6.85325 114 158 163
-35.8244 40.3103 -18.2272 114 158 163
2.28207 -19.0777 41.1609 114 158 163
11.3727 -3.6909 25.7741 114 158 163
-43.0225 -30.2325 52.3156 114 158 163
-35.6225 -37.792 59.8751 114 158 163
23.0071 -37.4796 59.5627 114 158 163
31.2411 45.725 -23.6419 114 158 163
32.2465 49.2481 -27.165 114 158 163
32.8895 -33.8916 55.9748 114 158 163
1.2559 -27.5873 49.6704 114 158 163
45.0249 59.0346 -36.9515 114 158 163
48.7478 33.7447 -11.6616 114 158 163
-26.8027 -20.6662 42.7493 114 158 163
16.8171 -24.1981 46.2812 114 158 163
14.8443 -3.0404 25.1236 114 158 163
-31.1616 -26.3014 48.3845 114 158 163
39.7532 29.561 -7.47785 114 158 163
-0.466016 -21.4346 43.5177 114 158 163
10.5344 9.6082 12.4749 114 158 163
-38.2566 27.2085 -5.12535 114 158 163
15.9538 2.14501 19.9381 114 158 163
26.5339 -16.354 38.4372 114 158 163
17.0018 -13.3026 35.3858 114 158 163
49.0822 2.67784 19.4053 114 158 163
-33.0757 -11.1706 33.2537 114 158 163
9.74957 -25.2531 47.3362 114 158 163
-17.799 -9.7001 31.7833 114 158 163
11.3097 40.9932 -18.9101 114 158 163
-39.1387 18.3959 3.68725 114 158 163
-4.32593 35.4795 -13.3964 114 158 163
-29.5515 44.3875 -22.3044 114 158 163
38.7927 -22.2544 44.3375 114 158 163
-25.023 14.3756 7.70755 114 158 163
20.2805 -8.567 30.6501 114 158 163
0.303243 42.5972 -20.5141 114 158 163
11.0781 23.1895 -1.10635 114 158 163
-41.521 59.086 -37.0029 114 158 163
7.30178 39.974 -17.8909 114 158 163
-3.50197 -32.9013 54.9844 114 158 163
-18.3055 -34.1827 56.2659 114 158 163
27.8888 -26.9128 48.9959 114 158 163
-9.44036 -3.1991 25.2822 114 158 163
-27.554 -6.0932 28.1763 114 158 163
36.269 -20.2483 42.3314 114 158 163
46.6625 12.8808 9.20235 114 158 163
-45.7221 18.2109 3.87225 114 158 163
-30.5432 -3.7511 25.8343 114 158 163
-16.8923 -17.7669 39.8501 114 158 163
-28.2269 -9.8381 31.9212 114 158 163
11.9458 7.13807 14.945 114 158 163
14.7382 47.2915 -25.2084 114 158 163
47.6844 5.62449 16.4586 114 158 163
-46.8555 2.16512 19.918 114 158 163
-21.8523 -32.2223 54.3054 114 158 163
-9.31008 55.0147 -32.9316 114 158 163
-35.7546 -11.4852 33.5683 114 158 163
-43.6562 49.608 -27.5249 114 158 163
32.0567 49.5632 -27.4801 114 158 163
32.7889 5.97156 16.1115 114 158 163
-2.90943 4.2313 17.8518 114 158 163
2.99156 -22.0742 44.1573 114 158 163
3.55855 13.0088 9.07435 114 158 163
12.4118 -37.6671 59.7502 114 158 163
26.9969 14.0763 8.00685 114 158 163
-10.4941 49.1311 -27.048 114 158 163
-6.04185 56.7363 -34.6531 114 158 163
-0.00945942 39.8748 -17.7917 114 158 163
15.0785 5.9252 16.1579 114 158 163
15.6676 7.64793 14.4352 114 158 163
-40.885 58.7674 -36.6843 114 158 163
21.6889 54.9203 -32.8372 114 158 163
-44.9076 18.9858 3.09735 114 158 163
49.4651 -31.1954 53.2785 114 158 163
5.67224 4.77144 17.3117 114 158 163
-46.6369 -37.7175 59.8006 114 158 163
-27.2582 38.43 -16.3469 114 158 163
-19.6547 4.01128 18.0718 114 158 163
-17.4404 46.9612 -24.8781 114 158 163
30.4716 25.3273 -3.24415 114 158 163
23.9838 6.14926 15.9338 114 158 163
-9.57437 -11.4157 33.4989 114 158 163
48.7923 -22.5183 44.6014 114 158 163
29.377 44.2711 -22.188 114 158 163
-14.3773 -24.109 46.1921 114 158 163
11.8217 6.54597 15.5371 114 158 163
38.6607 0.74927 21.3338 114 158 163
14.758 -28.2502 50.3333 114 158 163
19.641 52.0842 -30.0011 114 158 163
24.7467 15.5497 6.53345 114 158 163
-45.4558 47.903 -25.8199 114 158 163
19.2065 20.2305 1.85265 114 158 163
-7.50231 42.0175 -19.9344 114 158 163
-23.0667 -4.2734 26.3565 114 158 163
34.0355 48.6365 -26.5534 114 158 163
-12.7225 0.33962 21.7435 114 158 163
23.4669 -6.5262 28.6094 114 158 163
31.1587 -17.4604 39.5435 114 158 163
-26.8105 -9.6518 31.7349 114 158 163
-19.3309 10.6616 11.4215 114 158 163
49.2779 -20.1176 42.2007 114 158 163
-20.9837 43.6533 -21.5702 114 158 163
17.3146 -24.76 46.8431 114 158 163
-19.043 55.0099 -32.9267 114 158 163
-27.622 -32.1273 54.2104 114 158 163
-27.1837 35.1147 -13.0316 114 158 163
42.2296 -22.0087 44.0918 114 158 163
44.7215 58.0179 -35.9348 114 158 163
16.9378 -15.2972 37.3804 114 158 163
33.987 -0.6873 22.7704 114 158 163
-22.828 23.843 -1.75985 114 158 163
23.6862 22.9486 -0.86545 114 158 163
28.5091 58.6738 -36.5906 114 158 163
29.4347 -38.183 60.2661 114 158 163
34.067 53.5404 -31.4573 114 158 163
19.8426 -22.4522 44.5353 114 158 163
-34.524 32.7786 -10.6955 114 158 163
18.6281 10.2764 11.8067 114 158 163
-1.81065 0.3589 21.7242 114 158 163
-1.33073 57.0346 -34.9515 114 158 163
27.7176 8.62969 13.4534 114 158 163
-49.0759 11.6536 10.4295 114 158 163
-41.3877 20.4646 1.61855 114 158 163
7.9979 47.4622 -25.3791 114 158 163
48.6718 31.9161 -9.83295 114 158 163
7.13399 -3.2346 25.3178 114 158 163
-35.5766 -19.3354 41.4185 114 158 163
18.4584 -4.5709 26.6541 114 158 163
28.4718 -35.9493 58.0324 114 158 163
28.7772 -10.5754 32.6586 114 158 163
4.16024 24.8982 -2.81505 114 158 163
30.6633 13.3834 8.69975 114 158 163
27.7345 -1.6333 23.7164 114 158 163
-38.5024 23.6175 -1.53435 114 158 163
44.3913 -27.4849 49.568 114 158 163
-0.592684 56.1245 -34.0414 114 158 163
-1.34595 41.8922 -19.8091 114 158 163
-6.73962 24.0184 -1.93525 114 158 163
-3.73559 24.5561 -2.47295 114 158 163
39.8336 51.5161 -29.433 114 158 163
38.8683 14.5401 7.54305 114 158 163
-43.5987 -13.7647 35.8478 114 158 163
-49.7001 17.7338 4.34935 114 158 163
19.1271 53.3468 -31.2637 114 158 163
22.4758 8.63017 13.4529 114 158 163
37.852 47.5733 -25.4902 114 158 163
-5.95442 -26.546 48.6291 114 158 163
35.9754 19.6365 2.44665 114 158 163
43.3394 2.84345 19.2397 114 158 163
-33.7877 36.0057 -13.9226 114 158 163
-9.31452 -36.7179 58.801 114 158 163
-39.9526 -18.7023 40.7855 114 158 163
-26.0503 -7.9705 30.0537 114 158 163
-14.7008 -16.254 38.3371 114 158 163
23.6253 -0.8529 22.936 114 158 163
16.2505 14.3553 7.72785 114 158 163
32.7524 -4.1257 26.2089 114 158 163
-6.09835 39.9764 -17.8933 114 158 163
-3.21547 59.716 -37.6329 114 158 163
16.7103 -13.7535 35.8367 114 158 163
-33.9227 42.6219 -20.5388 114 158 163
-5.94193 53.2308 -31.1477 114 158 163
-13.3047 -4.7249 26.8081 114 158 163
-43.9399 4.25881 17.8243 114 158 163
-30.3927 16.3619 5.72125 114 158 163
41.9133 30.2523 -8.16915 114 158 163
-48.8248 -9.157 31.2401 114 158 163
-37.5 -22.6958 44.7789 114 158 163
23.5984 -28.7951 50.8782 114 158 163
36.0638 23.9363 -1.85315 114 158 163
-9.11292 28.207 -6.12385 114 158 163
38.3718 -35.7857 57.8688 114 158 163
41.6929 34.8108 -12.7277 114 158 163
20.107 -25.7539 47.837 114 158 163
-11.293 16.4737 5.60945 114 158 163
-12.9125 33.2902 -11.2071 114 158 163
28.772 16.9701 5.11305 114 158 163
-38.5879 -29.5415 51.6246 114 158 163
9.97498 27.9438 -5.86065 114 158 163
32.6936 -37.4539 59.537 114 158 163
9.62336 43.8041 -21.721 114 158 163
3.81917 45.0395 -22.9564 114 158 163
21.2879 41.7452 -19.6621 114 158 163
48.8351 7.1283 14.9548 114 158 163
31.022 -0.1567 22.2398 114 158 163
-16.7142 51.4975 -29.4144 114 158 163
5.17041 -15.4533 37.5364 114 158 163
44.6381 -37.3191 59.4022 114 158 163
-41.891 -9.0236 31.1068 114 158 163
-24.9326 53.4587 -31.3756 114 158 163
4.41799 37.2383 -15.1552 114 158 163
9.57537 -4.3432 26.4263 114 158 163
-24.5951 1.55783 20.5253 114 158 163
-15.4182 29.8357 -7.75255 114 158 163
-46.1741 -38.2308 60.3139 114 158 163
21.1395 26.3885 -4.30535 114 158 163
4.6047 21.1614 0.92175 114 158 163
1.78549 -39.8114 61.8945 114 158 163
-11.8861 15.7333 6.34985 114 158 163
-10.8468 24.7253 -2.64215 114 158 163
-11.5858 -26.6051 48.6882 114 158 163
23.4835 -25.5952 47.6783 114 158 163
1.51895 48.0138 -25.9306 114 158 163
36.868 2.72198 19.3611 114 158 163
-45.0603 59.6444 -37.5613 114 158 163
19.6461 53.94 -31.8569 114 158 163
-39.0085 56.5584 -34.4753 114 158 163
-19.0766 4.49934 17.5838 114 158 163
-32.6866 53.985 -31.9019 114 158 163
-30.9849 52.5528 -30.4697 114 158 163
33.1186 30.4724 -8.38925 114 158 163
-25.4743 -27.3914 49.4745 114 158 163
7.7526 39.73 -17.6469 114 158 163
16.3975 24.8279 -2.74475 114 158 163
-47.5967 -9.8182 31.9014 114 158 163
-37.6887 -18.9171 41.0003 114 158 163
33.7738 -33.5483 55.6315 114 158 163
-38.25 57.5971 -35.514 114 158 163
-2.69335 23.3683 -1.28515 114 158 163
4.17354 6.89032 15.1928 114 158 163
-18.5277 -10.2469 32.33 114 158 163
21.1496 0.52659 21.5565 114 158 163
-20.5189 34.9865 -12.9034 114 158 163
-32.9652 6.61584 15.4673 114 158 163
-44.6037 -22.1924 44.2755 114 158 163
-2.86618 -13.7037 35.7868 114 158 163
-3.55433 58.8255 -36.7424 114 158 163
-10.621 -33.273 55.3561 114 158 163
-39.6196 -3.4644 25.5476 114 158 163
18.5555 -16.8029 38.886 114 158 163
31.2645 -7.1632 29.2463 114 158 163
-20.9196 17.0287 5.05445 114 158 163
24.5606 31.8115 -9.72835 114 158 163
-33.4112 -10.3255 32.4087 114 158 163
36.4643 -35.133 57.2161 114 158 163
37.5614 -10.2467 32.3299 114 158 163
38.4889 1.21566 20.8674 114 158 163
30.8515 1.6339 20.4492 114 158 163
-2.34718 15.3867 6.69645 114 158 163
26.5044 1.9168 20.1663 114 158 163
-47.3796 -15.0705 37.1536 114 158 163
4.58047 44.7447 -22.6616 114 158 163
-22.5151 8.10961 13.9735 114 158 163
-21.5949 21.512 0.57115 114 158 163
-25.7404 26.4064 -4.32325 114 158 163
-16.0773 45.1579 -23.0748 114 158 163
26.4427 17.5854 4.49775 114 158 163
18.504 -26.7364 48.8195 114 158 163
-48.3761 11.9249 10.1581 114 158 163
20.7782 16.1684 5.91475 114 158 163
-13.1267 15.0712 7.01195 114 158 163
42.4235 -27.1818 49.2649 114 158 163
11.8947 -6.9525 29.0356 114 158 163
27.3988 -24.7468 46.8299 114 158 163
0.2739 -21.7395 43.8226 114 158 163
-17.9547 -8.2268 30.3099 114 158 163
-8.15208 42.5726 -20.4895 114 158 163
27.3319 54.4878 -32.4047 114 158 163
4.15544 -17.1694 39.2526 114 158 163
-34.8498 -5.7521 27.8353 114 158 163
19.1338 15.4109 6.67225 114 158 163
25.7721 14.1113 7.97185 114 158 163
39.8109 21.9975 0.08565 114 158 163
-21.3753 37.0826 -14.9995 114 158 163
34.0718 -31.7944 53.8775 114 158 163
-6.2808 -22.7942 44.8773 114 158 163
-3.89474 -8.3731 30.4563 114 158 163
-33.0542 32.4864 -10.4033 114 158 163
-13.1452 54.1086 -32.0255 114 158 163
-15.9131 6.87614 15.207 114 158 163
-44.1767 -6.764 28.8471 114 158 163
13.9259 -30.1021 52.1852 114 158 163
-19.2003 6.45698 15.6261 114 158 163
46.2692 35.7288 -13.6457 114 158 163
45.6262 31.6751 -9.59195 114 158 163
-31.9576 -4.9681 27.0513 114 158 163
15.1682 26.4235 -4.34035 114 158 163
35.7782 36.4185 -14.3354 114 158 163
-34.062 -35.6501 57.7332 114 158 163
19.2582 20.6735 1.40965 114 158 163
-24.9507 7.66156 14.4215 114 158 163
-6.05536 -15.0364 37.1196 114 158 163
-2.74152 -0.4328 22.516 114 158 163
-46.6985 45.4218 -23.3387 114 158 163
2.53877 -18.9068 40.99 114 158 163
15.4164 36.6949 -14.6118 114 158 163
48.4312 -15.4334 37.5166 114 158 163
-28.4887 -26.7734 48.8565 114 158 163
-43.4555 40.017 -17.9339 114 158 163
-30.7996 -26.5319 48.615 114 158 163
-23.0667 21.0082 1.07495 114 158 163
7.50565 49.392 -27.3089 114 158 163
-46.4208 8.3527 13.7304 114 158 163
-5.8282 -16.9933 39.0765 114 158 163
-24.7117 -39.6379 61.721 114 158 163
0.0518682 -33.4268 55.5099 114 158 163
37.4528 30.7646 -8.68145 114 158 163
-1.12089 -37.9567 60.0399 114 158 163
-4.68361 5.7239 16.3592 114 158 163
37.1512 6.04433 16.0388 114 158 163
-22.2264 -14.7963 36.8795 114 158 163
35.8207 -11.1873 33.2704 114 158 163
33.007 6.05979 16.0233 114 158 163
35.1897 38.7378 -16.6547 114 158 163
20.3231 -0.5702 22.6534 114 158 163
-16.7201 -23.2943 45.3774 114 158 163
46.027 -22.2545 44.3376 114 158 163
-40.6951 7.45153 14.6316 114 158 163
-2.56512 37.0172 -14.9341 114 158 163
-11.2796 21.5233 0.55985 114 158 163
-29.2696 42.7195 -20.6364 114 158 163
-32.272 -26.3167 48.3999 114 158 163
7.87836 29.0965 -7.01335 114 158 163
32.7162 -36.345 58.4281 114 158 163
-46.1932 -38.5957 60.6788 114 158 163
-46.4345 -8.2837 30.3669 114 158 163
-17.192 20.2207 1.86245 114 158 163
-15.058 -23.9121 45.9952 114 158 163
39.6997 -5.5117 27.5949 114 158 163
-9.32703 -28.5537 50.6368 114 158 163
-36.631 59.4488 -37.3657 114 158 163
35.5411 34.3138 -12.2307 114 158 163
13.4871 -19.6855 41.7687 114 158 163
29.4024 26.6353 -4.55215 114 158 163
40.435 -32.0214 54.1045 114 158 163
1.5477 41.6012 -19.5181 114 158 163
-4.0338 30.7287 -8.64555 114 158 163
33.6584 -32.3758 54.459 114 158 163
-21.7802 -23.7651 45.8482 114 158 163
5.91547 40.1892 -18.1061 114 158 163
31.666 17.6834 4.39975 114 158 163
41.6925 28.5604 -6.47725 114 158 163
28.6252 34.0189 -11.9358 114 158 163
2.85483 58.2707 -36.1876 114 158 163
-9.86822 -4.2482 26.3314 114 158 163
-41.7211 26.482 -4.39885 114 158 163
-13.9832 -15.4811 37.5643 114 158 163
3.91674 26.095 -4.01185 114 158 163
-32.3498 -26.8578 48.941 114 158 163
-26.2183 26.7549 -4.67175 114 158 163
-2.17273 -9.0359 31.1191 114 158 163
47.9559 -25.9908 48.0739 114 158 163
46.3559 -6.0688 28.1519 114 158 163
8.60058 24.8491 -2.76595 114 158 163
29.2526 19.564 2.51915 114 158 163
-35.5228 25.9165 -3.83335 114 158 163
40.8749 44.309 -22.2259 114 158 163
44.2008 8.26809 13.815 114 158 163
32.9054 -21.8675 43.9506 114 158 163
46.4121 33.6137 -11.5306 114 158 163
28.1962 -38.2429 60.326 114 158 163
41.0627 -38.4524 60.5356 114 158 163
17.7359 15.9613 6.12185 114 158 163
-32.7606 -21.8722 43.9553 114 158 163
5.63019 -34.0401 56.1232 114 158 163
-30.9739 52.0326 -29.9495 114 158 163
22.5645 10.7374 11.3457 114 158 163
38.7376 32.5773 -10.4942 114 158 163
-31.5475 43.0863 -21.0032 114 158 163
44.0559 26.651 -4.56785 114 158 163
25.9106 35.6415 -13.5584 114 158 163
4.68434 34.4542 -12.3711 114 158 163
-42.102 -7.0513 29.1344 114 158 163
-15.9543 37.6474 -15.5643 114 158 163
13.0188 -10.9276 33.0107 114 158 163
23.3797 -28.9119 50.995 114 158 163
-49.1605 51.0817 -28.9986 114 158 163
-36.0972 -3.942 26.0251 114 158 163
35.2331 26.5181 -4.43495 114 158 163
-0.927044 -26.9698 49.0529 114 158 163
34.6384 -29.8792 51.9624 114 158 163
37.8297 -15.6413 37.7244 114 158 163
-30.6869 53.0024 -30.9193 114 158 163
-26.6078 -12.5407 34.6239 114 158 163
-0.411447 44.7294 -22.6463 114 158 163
-39.916 -7.8072 29.8904 114 158 163
9.7732 9.728 12.3551 114 158 163
-45.4193 -9.7675 31.8506 114 158 163
-8.78983 7.91423 14.1689 114 158 163
31.553 45.8317 -23.7486 114 158 163
38.4152 -5.4347 27.5178 114 158 163
6.79158 30.5444 -8.46125 114 158 163
6.54698 -20.2711 42.3542 114 158 163
35.1648 -36.6471 58.7302 114 158 163
7.98058 -31.6363 53.7194 114 158 163
-30.2468 29.8867 -7.80355 114 158 163
16.0676 4.30895 17.7741 114 158 163
31.7013 42.3194 -20.2363 114 158 163
-48.5151 -34.0646 56.1477 114 158 163
2.60355 37.0329 -14.9498 114 158 163
5.94325 39.6254 -17.5423 114 158 163
-20.2376 45.9744 -23.8913 114 158 163
23.3215 -17.7639 39.8471 114 158 163
-14.4108 30.8517 -8.76855 114 158 163
-40.5595 -17.9018 39.9849 114 158 163
32.4967 19.7938 2.28935 114 158 163
47.3916 22.3899 -0.30675 114 158 163
41.7808 -26.8777 48.9608 114 158 163
-6.74836 -32.4979 54.581 114 158 163
-44.8964 39.4022 -17.3191 114 158 163
-46.4214 -36.5927 58.6758 114 158 163
3.75534 3.19903 18.8841 114 158 163
25.843 15.1445 6.93865 114 158 163
28.7126 22.9182 -0.83505 114 158 163
10.4742 33.6707 -11.5876 114 158 163
-9.29779 34.8633 -12.7802 114 158 163
43.461 -14.209 36.2921 114 158 163
-44.8528 -6.4948 28.5779 114 158 163
-38.3243 -3.3299 25.413 114 158 163
-10.2802 14.1467 7.93645 114 158 163
-43.999 46.797 -24.7139 114 158 163
46.4248 14.1008 7.98235 114 158 163
36.0679 55.5336 -33.4505 114 158 163
-30.729 -38.6839 60.767 114 158 163
25.9957 -27.3034 49.3865 114 158 163
48.4604 57.6275 -35.5444 114 158 163
-41.0272 -6.1966 28.2798 114 158 163
24.4002 -25.2397 47.3228 114 158 163
42.1932 20.5091 1.57405 114 158 163
24.9926 -18.6533 40.7364 114 158 163
-17.7234 40.3701 -18.287 114 158 163
-45.0947 -13.6208 35.7039 114 158 163
42.7176 7.21128 14.8718 114 158 163
17.4843 36.8122 -14.7291 114 158 163
-2.12683 15.5893 6.49385 114 158 163
-46.8958 -10.1842 32.2674 114 158 163
8.56291 49.0133 -26.9302 114 158 163
-22.0289 4.4391 17.644 114 158 163
47.1191 8.99377 13.0893 114 158 163
23.3554 57.8875 -35.8043 114 158 163
-46.0184 -8.792 30.8751 114 158 163
-29.2666 -28.0521 50.1352 114 158 163
35.7425 27.0945 -5.01135 114 158 163
7.84935 -27.0943 49.1774 114 158 163
-25.4447 -9.4165 31.4997 114 158 163
-8.34371 12.778 9.30515 114 158 163
10.6903 9.90549 12.1776 114 158 163
-2.55983 3.12799 18.9551 114 158 163
-29.1943 22.4535 -0.37035 114 158 163
31.2688 11.5557 10.5274 114 158 163
38.1859 58.8392 -36.7561 114 158 163
35.2071 -20.2016 42.2847 114 158 163
22.7992 -38.9646 61.0477 114 158 163
15.0177 -30.3011 52.3842 114 158 163
8.53186 -37.7722 59.8554 114 158 163
-15.1065 29.3886 -7.30545 114 158 163
-40.0276 56.9036 -34.8205 114 158 163
-0.132013 40.6384 -18.5553 114 158 163
31.2487 20.7245 1.35865 114 158 163
49.0715 22.7242 -0.64105 114 158 163
31.1313 22.3179 -0.23475 114 158 163
-16.7733 35.4958 -13.4127 114 158 163
21.4431 15.0649 7.01825 114 158 163
-29.8285 15.4192 6.66395 114 158 163
-2.31212 -17.5413 39.6245 114 158 163
6.20143 -14.8854 36.9685 114 158 163
29.581 -32.2374 54.3205 114 158 163
37.5096 44.115 -22.0319 114 158 163
39.2104 -25.4735 47.5566 114 158 163
-30.2169 -39.3879 61.471 114 158 163
9.24536 39.0486 -16.9655 114 158 163
-7.68979 50.3704 -28.2873 114 158 163
44.2783 35.7109 -13.6278 114 158 163
-6.72417 -31.2501 53.3332 114 158 163
-24.6779 -8.9721 31.0552 114 158 163
43.5063 52.8207 -30.7376 114 158 163
36.2259 27.7981 -5.71495 114 158 163
3.85681 36.688 -14.6049 114 158 163
-10.3641 34.0026 -11.9195 114 158 163
-20.5811 36.3592 -14.2761 114 158 163
46.1855 56.3637 -34.2806 114 158 163
7.84251 -27.9754 50.0585 114 158 163
-43.9819 -6.1086 28.1917 114 158 163
42.1538 -17.706 39.7892 114 158 163
0.682847 53.0345 -30.9514 114 158 163
-20.1988 -37.0383 59.1214 114 158 163
-40.61 51.9452 -29.8621 114 158 163
1.78025 -10.6144 32.6975 114 158 163
-7.85646 -23.8497 45.9328 114 158 163
19.1924 10.8792 11.2039 114 158 163
31.4227 29.4597 -7.37655 114 158 163
-18.0233 1.2961 20.787 114 158 163
31.451 42.7226 -20.6395 114 158 163
45.4175 -35.692 57.7751 114 158 163
46.735 24.8606 -2.77745 114 158 163
8.13709 55.7266 -33.6435 114 158 163
4.66295 6.53809 15.545 114 158 163
-30.6365 -30.9181 53.0012 114 158 163
9.30286 -9.1026 31.1857 114 158 163
39.9252 40.1778 -18.0947 114 158 163
-1.05043 -18.1519 40.235 114 158 163
-13.393 50.2439 -28.1608 114 158 163
20.0452 -33.0897 55.1728 114 158 163
-43.5837 -9.2707 31.3538 114 158 163
-0.186858 56.7189 -34.6358 114 158 163
44.281 1.88533 20.1978 114 158 163
-15.3247 -24.1125 46.1957 114 158 163
5.77858 -18.6303 40.7134 114 158 163
47.9161 56.9806 -34.8975 114 158 163
-36.9758 -38.806 60.8892 114 158 163
34.6082 -7.5331 29.6162 114 158 163
-0.637548 16.3881 5.69505 114 158 163
-6.95625 0.12625 21.9568 114 158 163
-6.75102 2.26611 19.817 114 158 163
6.48115 39.9953 -17.9122 114 158 163
45.0065 -37.9326 60.0157 114 158 163
-43.3477 10.795 11.2881 114 158 163
21.8803 6.23001 15.8531 114 158 163
-26.0418 8.72143 13.3617 114 158 163
-13.2045 37.3091 -15.226 114 158 163
-32.275 -16.0493 38.1325 114 158 163
18.2823 57.6977 -35.6146 114 158 163
-27.2318 -20.6246 42.7077 114 158 163
42.9656 26.3476 -4.26445 114 158 163
-1.29173 28.4076 -6.32445 114 158 163
-36.5189 43.4214 -21.3383 114 158 163
-40.0164 0.46506 21.618 114 158 163
12.2982 3.60633 18.4768 114 158 163
22.4595 -36.371 58.4541 114 158 163
25.9059 28.4808 -6.39765 114 158 163
26.1746 7.65233 14.4308 114 158 163
-11.0111 -38.1222 60.2053 114 158 163
18.3038 5.73404 16.3491 114 158 163
49.4994 -38.5203 60.6034 114 158 163
13.6457 -8.4003 30.4834 114 158 163
-22.6801 2.17784 19.9053 114 158 163
-43.5549 -24.1636 46.2467 114 158 163
33.0951 -1.174 23.2572 114 158 163
-10.3241 29.7257 -7.64255 114 158 163
-47.6845 10.8793 11.2038 114 158 163
21.1 58.9128 -36.8297 114 158 163
-3.05935 -39.4329 61.516 114 158 163
-47.5707 12.3487 9.73445 114 158 163
16.1028 13.1165 8.96665 114 158 163
-22.5599 -11.1063 33.1894 114 158 163
-49.2667 9.19949 12.8836 114 158 163
-41.5996 9.41384 12.6693 114 158 163
27.9646 28.3502 -6.26705 114 158 163
13.4029 12.0414 10.0417 114 158 163
47.6751 -32.8836 54.9667 114 158 163
22.5613 23.4915 -1.40835 114 158 163
16.2264 34.7918 -12.7087 114 158 163
-27.9743 -17.963 40.0461 114 158 163
3.0518 50.7352 -28.6521 114 158 163
32.0098 46.2522 -24.1691 114 158 163
-21.377 15.347 6.73615 114 158 163
-25.9721 31.6975 -9.61435 114 158 163
2.04665 24.2205 -2.13735 114 158 163
33.3305 39.9935 -17.9104 114 158 163
24.0874 28.4943 -6.41115 114 158 163
-23.7556 57.0565 -34.9733 114 158 163
-11.1483 49.7173 -27.6342 114 158 163
46.9549 25.6415 -3.55835 114 158 163
22.2935 -25.5586 47.6417 114 158 163
-42.6505 20.9648 1.11835 114 158 163
-1.31749 -13.3444 35.4276 114 158 163
27.6789 0.6766 21.4065 114 158 163
40.6941 -21.9731 44.0562 114 158 163
-29.0814 -7.7438 29.8269 114 158 163
44.8755 48.4664 -26.3833 114 158 163
34.4325 -11.2989 33.382 114 158 163
41.0362 27.3276 -5.24445 114 158 163
11.684 15.6939 6.38925 114 158 163
24.5961 -32.1378 54.2209 114 158 163
-0.0145025 -1.217 23.3002 114 158 163
-19.9853 -0.1668 22.25 114 158 163
-21.3297 -22.9458 45.0289 114 158 163
31.7472 46.2676 -24.1845 114 158 163
21.5651 -15.6665 37.7497 114 158 163
-39.6557 39.1882 -17.1051 114 158 163
15.2708 -17.1637 39.2469 114 158 163
28.7024 -19.2473 41.3305 114 158 163
24.8131 26.3455 -4.26235 114 158 163
28.8962 -11.4918 33.575 114 158 163
-0.924772 -17.3334 39.4165 114 158 163
14.2023 -33.8826 55.9657 114 158 163
40.7398 33.4452 -11.3621 114 158 163
36.7419 -7.4405 29.5237 114 158 163
34.0959 -39.2335 61.3166 114 158 163
43.1814 44.9839 -22.9008 114 158 163
34.5275 26.1704 -4.08725 114 158 163
-42.5556 -19.2186 41.3018 114 158 163
-9.22716 55.0311 -32.948 114 158 163
36.8211 -3.7859 25.8691 114 158 163
-23.4629 -22.7314 44.8145 114 158 163
17.5746 59.8228 -37.7396 114 158 163
-14.6553 -32.6669 54.7501 114 158 163
19.7456 45.0351 -22.952 114 158 163
23.5086 44.1563 -22.0732 114 158 163
10.3505 43.7083 -21.6252 114 158 163
5.73247 31.2908 -9.20765 114 158 163
-34.8191 58.7953 -36.7122 114 158 163
-47.3026 2.49019 19.5929 114 158 163
18.6673 15.8431 6.23995 114 158 163
16.9553 20.3581 1.72505 114 158 163
18.5773 15.1395 6.94365 114 158 163
-29.3556 -10.7652 32.8483 114 158 163
18.9147 -31.478 53.5611 114 158 163
-47.6122 -24.0192 46.1023 114 158 163
17.4802 -6.8096 28.8927 114 158 163
14.354 52.5946 -30.5115 114 158 163
-23.8441 4.1549 17.9282 114 158 163
8.55138 -15.3786 37.4618 114 158 163
20.1924 -34.9042 56.9873 114 158 163
44.4834 49.2339 -27.1508 114 158 163
36.1381 50.8761 -28.793 114 158 163
-39.5887 50.169 -28.0859 114 158 163
-6.1225 29.7447 -7.66155 114 158 163
38.538 2.00075 20.0824 114 158 163
-3.84712 -6.9291 29.0123 114 158 163
-11.1532 43.3415 -21.2584 114 158 163
0.941771 27.6034 -5.52025 114 158 163
-31.6897 -31.5561 53.6392 114 158 163
-1.42556 35.9318 -13.8487 114 158 163
28.3981 -17.5088 39.592 114 158 163
-19.7654 34.8108 -12.7277 114 158 163
22.6784 -30.0353 52.1184 114 158 163
8.63777 14.2262 7.85695 114 158 163
16.0029 3.12093 18.9622 114 158 163
-10.2119 59.3627 -37.2796 114 158 163
-35.1265 41.9409 -19.8578 114 158 163
24.9104 -21.5095 43.5926 114 158 163
-6.16438 28.8462 -6.76305 114 158 163
-32.5118 -8.4441 30.5273 114 158 163
7.99837 11.5579 10.5252 114 158 163
-9.46628 34.8942 -12.8111 114 158 163
7.62381 -23.4001 45.4832 114 158 163
-15.3212 59.6896 -37.6065 114 158 163
24.5918 -4.8451 26.9282 114 158 163
-15.9222 -25.8824 47.9655 114 158 163
-48.6408 23.5879 -1.50475 114 158 163
-46.0937 55.7307 -33.6476 114 158 163
-18.8574 -12.61 34.6932 114 158 163
27.6075 -39.8652 61.9483 114 158 163
-26.7639 -29.5862 51.6693 114 158 163
-49.1026 -27.0648 49.1479 114 158 163
-16.5227 54.8124 -32.7293 114 158 163
25.9654 3.71389 18.3692 114 158 163
33.7622 59.8362 -37.7531 114 158 163
-27.2952 48.3555 -26.2724 114 158 163
36.5813 26.9964 -4.91325 114 158 163
-10.0902 -21.6349 43.718 114 158 163
-24.6222 -13.5592 35.6423 114 158 163
-10.986 11.7343 10.3488 114 158 163
-22.2853 43.7955 -21.7124 114 158 163
15.468 -22.0433 44.1264 114 158 163
-5.06714 -2.4986 24.5817 114 158 163
-22.859 49.811 -27.7279 114 158 163
-13.2682 -1.4219 23.5051 114 158 163
21.0339 13.7954 8.28775 114 158 163
29.5818 5.14746 16.9356 114 158 163
-48.9494 43.0971 -21.014 114 158 163
2.35686 -3.0734 25.1566 114 158 163
-18.0299 -13.9054 35.9885 114 158 163
38.6466 26.8114 -4.72825 114 158 163
-0.2527 -39.2961 61.3792 114 158 163
-24.9626 17.3998 4.68335 114 158 163
21.8501 -21.6427 43.7258 114 158 163
-3.21616 2.48633 19.5968 114 158 163
41.5591 59.6242 -37.541 114 158 163
-2.09728 34.6935 -12.6104 114 158 163
-22.2623 54.8741 -32.791 114 158 163
-18.5821 50.3816 -28.2985 114 158 163
-18.2944 -20.7327 42.8158 114 158 163
-10.3294 31.3482 -9.26505 114 158 163
-39.408 -29.8044 51.8875 114 158 163
-8.6504 25.3505 -3.26735 114 158 163
-23.324 21.8347 0.24845 114 158 163
-25.4034 13.6944 8.38875 114 158 163
21.944 -38.1658 60.2489 114 158 163
-3.20097 15.3702 6.71295 114 158 163
-5.44328 -39.7852 61.8683 114 158 163
-4.56192 -10.7905 32.8736 114 158 163
-20.8787 0.05847 22.0246 114 158 163
-17.5666 21.3362 0.74695 114 158 163
-5.50734 -9.4599 31.5431 114 158 163
24.6406 44.5791 -22.496 114 158 163
-30.1959 10.5999 11.4832 114 158 163
46.8753 47.2399 -25.1568 114 158 163
6.19728 20.3467 1.73645 114 158 163
39.6053 3.49404 18.5891 114 158 163
-4.84712 -38.9736 61.0567 114 158 163
0.502524 -32.1225 54.2056 114 158 163
-18.3399 54.3765 -32.2934 114 158 163
11.2246 20.6361 1.44705 114 158 163
42.2692 -38.8955 60.9787 114 158 163
18.4863 25.1332 -3.05005 114 158 163
-15.6538 -34.9962 57.0793 114 158 163
