ply
format ascii 1.0
element vertex 1373
property float x
property float y
property float z
property uchar red
property uchar green
property uchar blue
end_header
-10.0511 21.2496 -7.80462 251 0 44
-10.0511 -3.20023 36.0986 251 0 44
-10.0511 -21.6217 48.2912 251 0 44
-10.0511 9.65538 -10.7002 251 0 44
-10.0511 -24.3478 40.6206 251 0 44
-10.0511 -42.5981 -1.65133 251 0 44
-10.0511 -37.5058 -9.07324 251 0 44
-10.0511 -2.32282 -28.2782 251 0 44
-10.0511 11.2237 -38.2538 251 0 44
-10.0511 27.9944 44.6088 251 0 44
-10.0511 -23.3256 -12.7535 251 0 44
-10.0511 43.7519 27.1955 251 0 44
-10.0511 -33.2523 -30.8897 251 0 44
-10.0511 -27.5842 46.215 251 0 44
-10.0511 45.962 -12.8157 251 0 44
-10.0511 9.85173 -29.5757 251 0 44
-10.0511 -30.7293 30.0135 251 0 44
-10.0511 7.61212 -18.0185 251 0 44
-10.0511 14.5867 2.66036 251 0 44
-10.0511 -44.5786 -14.0833 251 0 44
-10.0511 -48.692 -3.02375 251 0 44
-10.0511 3.86116 -27.7317 251 0 44
-10.0511 -14.3039 48.3015 251 0 44
-10.0511 -27.1392 12.0983 251 0 44
-10.0511 46.2891 45.3888 251 0 44
-10.0511 -20.4187 -19.9663 251 0 44
-10.0511 -40.3752 32.4305 251 0 44
-10.0511 -35.0033 2.51493 251 0 44
-10.0511 -35.2772 12.122 251 0 44
-10.0511 31.73 42.2388 251 0 44
-10.0511 32.051 -16.5534 251 0 44
-10.0511 5.20681 19.0129 251 0 44
-10.0511 26.9977 -38.7314 251 0 44
-10.0511 22.187 48.9543 251 0 44
-10.0511 -35.7375 -8.06791 251 0 44
-10.0511 26.6227 -44.0226 251 0 44
-10.0511 -16.8736 -44.7758 251 0 44
-10.0511 43.0371 35.6529 251 0 44
-10.0511 -17.4198 -11.0334 251 0 44
-10.0511 9.00034 -18.2197 251 0 44
-10.0511 -7.70145 45.4825 251 0 44
-10.0511 38.2989 12.6267 251 0 44
-10.0511 -5.40044 -8.7081 251 0 44
-10.0511 12.877 8.69728 251 0 44
-10.0511 -40.2905 45.6864 251 0 44
-10.0511 24.8128 47.1544 251 0 44
-10.0511 -18.2392 -34.8132 251 0 44
-10.0511 39.4415 -22.0462 251 0 44
-10.0511 -35.4091 -15.3185 251 0 44
-10.0511 -5.97221 -39.2559 251 0 44
-10.0511 -30.5968 12.8785 251 0 44
-10.0511 -36.5927 -3.72496 251 0 44
-10.0511 -12.2771 45.6346 251 0 44
-10.0511 25.1518 -49.7497 251 0 44
-10.0511 -44.1077 49.7458 251 0 44
-10.0511 -8.96039 45.8197 251 0 44
-10.0511 -43.2097 -45.6462 251 0 44
-10.0511 2.68005 11.6697 251 0 44
-10.0511 33.1022 -49.6726 251 0 44
-10.0511 -2.39479 -3.42692 251 0 44
-10.0511 -29.1166 -26.9703 251 0 44
-10.0511 -39.239 6.53347 251 0 44
-10.0511 23.9583 18.127 251 0 44
-10.0511 -7.23066 -27.5599 251 0 44
-10.0511 29.9902 18.3697 251 0 44
-10.0511 16.4812 -46.435 251 0 44
-10.0511 -30.6079 -34.6649 251 0 44
-10.0511 -5.75617 12.7921 251 0 44
-10.0511 2.57742 -43.9266 251 0 44
-10.0511 -33.3513 -37.9066 251 0 44
-10.0511 -23.3359 -45.4659 251 0 44
-10.0511 -32.4926 29.8251 251 0 44
-10.0511 -3.48636 -28.9816 251 0 44
-10.0511 -48.5567 23.6498 251 0 44
-10.0511 -18.4626 -23.8788 251 0 44
-10.0511 -15.624 -6.26264 251 0 44
-10.0511 -2.14231 -32.9232 251 0 44
-10.0511 16.7566 14.7486 251 0 44
-10.0511 19.583 1.65597 251 0 44
-10.0511 39.6367 -46.0339 251 0 44
-10.0511 48.0048 -7.17762 251 0 44
-10.0511 -22.9857 -44.8201 251 0 44
-10.0511 10.8711 -39.7931 251 0 44
-10.0511 -42.6685 10.0472 251 0 44
-10.0511 -10.9695 49.0412 251 0 44
-10.0511 -42.7157 -33.573 251 0 44
-10.0511 -23.1756 9.29241 251 0 44
-10.0511 -30.3801 -1.35472 251 0 44
-10.0511 14.4974 42.8355 251 0 44
-10.0511 14.1598 -32.2313 251 0 44
-10.0511 -27.0753 43.2344 251 0 44
-10.0511 -24.7187 18.3938 251 0 44
-10.0511 45.6193 30.6446 251 0 44
-10.0511 47.017 -30.9638 251 0 44
-10.0511 -16.0541 36.8494 251 0 44
-10.0511 -37.0239 2.23037 251 0 44
-10.0511 24.9255 -28.6011 251 0 44
-10.0511 -23.429 -24.8506 251 0 44
-10.0511 -46.8649 33.1335 251 0 44
-10.0511 -32.0207 49.1762 251 0 44
-10.0511 -16.8902 23.6582 251 0 44
-10.0511 -2.75921 47.0301 251 0 44
-10.0511 0.215741 18.0848 251 0 44
-10.0511 -32.9042 -13.0189 251 0 44
-10.0511 27.968 -25.4252 251 0 44
-10.0511 34.8163 14.2513 251 0 44
-10.0511 -37.4596 -29.0737 251 0 44
-10.0511 33.108 -9.66565 251 0 44
-10.0511 -13.9486 -37.3289 251 0 44
-10.0511 0.475199 45.4193 251 0 44
-10.0511 2.49628 -29.9745 251 0 44
-10.0511 32.3016 12.1288 251 0 44
-10.0511 43.6628 -17.6891 251 0 44
-10.0511 34.5734 -35.9746 251 0 44
-10.0511 44.7456 -10.2154 251 0 44
-10.0511 32.1877 -49.0973 251 0 44
-10.0511 -28.0976 33.5704 251 0 44
-10.0511 -40.6963 -43.0585 251 0 44
-10.0511 33.3555 46.4353 251 0 44
-10.0511 -15.5034 10.6493 251 0 44
-10.0511 -28.5719 -48.5358 251 0 44
-10.0511 -2.52828 0.531517 251 0 44
-10.0511 15.7961 -23.5313 251 0 44
-10.0511 36.7965 27.9216 251 0 44
-10.0511 30.6246 -16.1624 251 0 44
-10.0511 41.2879 11.9205 251 0 44
-10.0511 47.5516 -10.0009 251 0 44
-10.0511 -23.0101 -44.4321 251 0 44
-10.0511 -9.5566 9.76982 251 0 44
-10.0511 -43.3727 44.7857 251 0 44
-10.0511 44.9618 -22.5474 251 0 44
-10.0511 -43.6338 -6.44262 251 0 44
-10.0511 43.6787 33.8653 251 0 44
-10.0511 -1.02867 23.5634 251 0 44
-10.0511 4.30375 31.1584 251 0 44
-10.0511 30.6736 -47.9224 251 0 44
-10.0511 23.5155 44.0185 251 0 44
-10.0511 -34.731 36.0155 251 0 44
-10.0511 24.3579 -28.0739 251 0 44
-10.0511 5.43312 -10.4065 251 0 44
-10.0511 -27.7085 36.9017 251 0 44
-10.0511 -41.695 40.4698 251 0 44
-10.0511 -10.9439 2.55809 251 0 44
-10.0511 18.6221 22.1283 251 0 44
-10.0511 -43.9668 23.377 251 0 44
-10.0511 -47.4934 38.444 251 0 44
-10.0511 -48.3915 49.7707 251 0 44
-10.0511 -26.6592 12.6836 251 0 44
-10.0511 -5.79498 -1.9365 251 0 44
-10.0511 47.9685 -29.6152 251 0 44
-10.0511 7.58207 36.141 251 0 44
-10.0511 -38.6439 -15.7539 251 0 44
-10.0511 48.9257 0.707417 251 0 44
-10.0511 -8.03419 -1.6434 251 0 44
-10.0511 33.1115 -38.7233 251 0 44
-10.0511 -20.5777 -12.1859 251 0 44
-10.0511 34.519 33.7411 251 0 44
-10.0511 -34.2002 23.5888 251 0 44
-10.0511 -17.9023 -11.6081 251 0 44
-10.0511 35.739 16.3318 251 0 44
-10.0511 -17.3939 -34.165 251 0 44
-10.0511 23.5949 3.79502 251 0 44
-10.0511 -17.1831 -21.2257 251 0 44
-10.0511 -23.4215 -5.67881 251 0 44
-10.0511 15.2764 13.6065 251 0 44
-10.0511 -45.8376 -37.5165 251 0 44
-10.0511 32.9647 -1.48232 251 0 44
-10.0511 37.5575 -44.4986 251 0 44
-10.0511 -3.30426 -37.4669 251 0 44
-10.0511 23.1271 -20.8489 251 0 44
-10.0511 32.7283 13.4867 251 0 44
-10.0511 12.4981 27.9307 251 0 44
-10.0511 17.3714 45.1041 251 0 44
-10.0511 -6.20911 -10.051 251 0 44
-10.0511 -10.0229 -41.7904 251 0 44
-10.0511 46.0194 46.2809 251 0 44
-10.0511 20.0831 5.14712 251 0 44
-10.0511 -30.3874 2.63434 251 0 44
-10.0511 7.65998 44.3961 251 0 44
-10.0511 -17.3912 46.38 251 0 44
-10.0511 -22.928 -39.8555 251 0 44
-10.0511 7.30889 -31.2003 251 0 44
-10.0511 -32.501 -30.5541 251 0 44
-10.0511 -31.9232 27.9918 251 0 44
-10.0511 41.8487 -26.3089 251 0 44
-10.0511 39.9227 -34.2447 251 0 44
-10.0511 -24.8488 28.0668 251 0 44
-10.0511 -45.5378 -24.7501 251 0 44
-10.0511 -35.311 -1.61753 251 0 44
-10.0511 -0.915252 11.4659 251 0 44
-10.0511 -36.4383 -32.4297 251 0 44
-10.0511 6.92309 37.4742 251 0 44
-10.0511 -32.1989 -40.5902 251 0 44
-10.0511 -34.3898 2.47642 251 0 44
-10.0511 -44.7441 18.4075 251 0 44
-10.0511 48.5452 49.2721 251 0 44
-10.0511 48.7361 -17.0331 251 0 44
-10.0511 40.3263 -9.26508 251 0 44
-10.0511 20.1002 -4.35251 251 0 44
-10.0511 -28.0025 -48.2828 251 0 44
-10.0511 20.1499 5.60152 251 0 44
-10.0511 -20.4184 -44.4531 251 0 44
-10.0511 -28.0599 -3.86954 251 0 44
-10.0511 48.4141 -1.45988 251 0 44
-10.0511 -1.12339 0.843547 251 0 44
-10.0511 -0.970216 6.48785 251 0 44
-10.0511 45.6202 -17.2369 251 0 44
-10.0511 24.7051 -16.8667 251 0 44
-10.0511 -20.3764 -18.1697 251 0 44
-10.0511 38.9301 -43.6951 251 0 44
-10.0511 11.9611 25.4313 251 0 44
-10.0511 -6.58619 43.3242 251 0 44
-10.0511 8.72393 -7.41956 251 0 44
-10.0511 9.34964 -26.1832 251 0 44
-10.0511 -12.9 -8.3692 251 0 44
-10.0511 -39.5952 7.7443 251 0 44
-10.0511 -31.8055 14.6307 251 0 44
-10.0511 35.3088 -41.0254 251 0 44
-10.0511 -23.664 -2.87654 251 0 44
-10.0511 -29.1784 15.9443 251 0 44
-10.0511 -38.8483 46.3899 251 0 44
-10.0511 28.6593 -38.752 251 0 44
-10.0511 -2.74745 -0.830693 251 0 44
-10.0511 -32.766 37.95 251 0 44
-10.0511 -25.9895 -21.0865 251 0 44
-10.0511 -30.5006 4.63438 251 0 44
-10.0511 16.6312 23.5525 251 0 44
-10.0511 -41.3284 -11.6277 251 0 44
-10.0511 -21.0235 47.0648 251 0 44
-10.0511 -8.92009 -24.6982 251 0 44
-10.0511 -17.8758 26.5407 251 0 44
-10.0511 -36.1355 18.133 251 0 44
-10.0511 7.96093 11.9556 251 0 44
-10.0511 10.2097 29.2467 251 0 44
-10.0511 41.1205 27.3707 251 0 44
-10.0511 45.4788 33.4278 251 0 44
-10.0511 -47.0301 42.5294 251 0 44
-10.0511 44.7103 -36.9004 251 0 44
-10.0511 32.7248 16.4433 251 0 44
-10.0511 -27.663 -43.0562 251 0 44
-10.0511 -34.2635 44.5742 251 0 44
-10.0511 -22.3574 18.4722 251 0 44
-10.0511 -21.2659 -5.05975 251 0 44
-10.0511 47.0459 -12.9458 251 0 44
-10.0511 49.2201 -6.81318 251 0 44
-10.0511 33.6988 19.1448 251 0 44
-10.0511 -27.2309 -22.9036 251 0 44
-10.0511 -18.2362 11.3572 251 0 44
-10.0511 -34.7477 0.507836 251 0 44
-10.0511 -43.6501 -42.9104 251 0 44
-10.0511 -7.79152 19.6535 251 0 44
-10.0511 -24.3528 48.703 251 0 44
-10.0511 48.9493 -15.1717 251 0 44
-10.0511 -49.8667 -25.4638 251 0 44
-10.0511 1.28458 -36.7207 251 0 44
-10.0511 5.91623 37.807 251 0 44
-10.0511 47.9942 -46.281 251 0 44
-10.0511 -0.854387 -36.7045 251 0 44
-10.0511 -4.02516 3.18669 251 0 44
-10.0511 -37.1668 20.1925 251 0 44
-10.0511 0.245266 34.7741 251 0 44
-10.0511 -46.8598 0.0637012 251 0 44
-10.0511 23.3845 -4.8052 251 0 44
-10.0511 -5.06219 -3.31045 251 0 44
-10.0511 49.8385 -39.4337 251 0 44
-10.0511 44.8618 -22.0294 251 0 44
-10.0511 37.2139 33.3422 251 0 44
-10.0511 -44.7743 -27.083 251 0 44
-10.0511 -2.75393 -27.919 251 0 44
-10.0511 32.5877 -42.5482 251 0 44
-10.0511 -15.5295 14.6177 251 0 44
-10.0511 5.25008 -18.401 251 0 44
-10.0511 7.76018 -30.5807 251 0 44
-10.0511 -45.1693 24.2798 251 0 44
-10.0511 -38.7682 14.638 251 0 44
-10.0511 31.476 22.9415 251 0 44
-10.0511 42.7305 48.9886 251 0 44
-10.0511 40.3773 38.0148 251 0 44
-10.0511 12.8676 1.50167 251 0 44
-10.0511 49.0002 -14.6324 251 0 44
-10.0511 48.715 42.4509 251 0 44
-10.0511 5.94908 -4.84505 251 0 44
-10.0511 -27.3555 5.61442 251 0 44
-10.0511 25.6093 7.11852 251 0 44
-10.0511 -14.3965 -42.6257 251 0 44
-10.0511 24.8801 14.0663 251 0 44
-10.0511 37.5213 -45.9278 251 0 44
-10.0511 -29.5732 -20.5307 251 0 44
-10.0511 -6.43398 -15.8689 251 0 44
-10.0511 -37.6736 20.4032 251 0 44
-10.0511 49.4489 1.11609 251 0 44
-10.0511 17.603 -42.8261 251 0 44
-10.0511 17.0412 -46.0983 251 0 44
-10.0511 37.9518 -17.6619 251 0 44
-10.0511 -49.3898 8.53388 251 0 44
-10.0511 -32.0787 12.9206 251 0 44
-10.0511 7.4834 -11.6446 251 0 44
-10.0511 -10.5352 -24.7327 251 0 44
-10.0511 -20.2796 -17.4358 251 0 44
-10.0511 36.484 11.6953 251 0 44
-10.0511 -13.1715 3.45439 251 0 44
-10.0511 40.2428 7.31909 251 0 44
-10.0511 43.9367 -17.1673 251 0 44
-10.0511 -6.68873 45.6765 251 0 44
-10.0511 15.1206 16.0714 251 0 44
-10.0511 12.137 -9.22539 251 0 44
-10.0511 32.543 34.4132 251 0 44
-10.0511 4.0442 38.7338 251 0 44
-10.0511 29.1258 -49.6449 251 0 44
-10.0511 -27.771 42.5879 251 0 44
-10.0511 2.28412 49.2993 251 0 44
-10.0511 -49.0754 -28.5542 251 0 44
-10.0511 37.1362 -7.99908 251 0 44
-10.0511 -48.9849 25.9412 251 0 44
-10.0511 48.5983 43.7227 251 0 44
-10.0511 -14.702 5.05161 251 0 44
-10.0511 -17.7382 49.3123 251 0 44
-10.0511 32.4849 38.5387 251 0 44
-10.0511 14.9535 -25.8072 251 0 44
-10.0511 -27.9658 16.3222 251 0 44
-10.0511 39.34 -13.4307 251 0 44
-10.0511 -37.3924 -26.9204 251 0 44
-10.0511 30.8161 -0.891726 251 0 44
-10.0511 -14.4286 28.3239 251 0 44
-10.0511 -46.7272 6.08953 251 0 44
-10.0511 34.4835 -8.47819 251 0 44
-10.0511 22.7058 31.5825 251 0 44
-10.0511 -26.4289 16.6694 251 0 44
-10.0511 21.7902 -10.3826 251 0 44
-10.0511 42.7522 -9.85681 251 0 44
-10.0511 3.41052 30.0951 251 0 44
-10.0511 -10.2717 47.406 251 0 44
-10.0511 -25.9708 39.5948 251 0 44
-10.0511 7.55126 -37.9973 251 0 44
-10.0511 -44.9173 21.9133 251 0 44
-10.0511 19.0041 34.2254 251 0 44
-10.0511 -9.28423 -6.56386 251 0 44
-10.0511 20.3098 23.873 251 0 44
-10.0511 -23.5913 38.8143 251 0 44
-10.0511 -14.4126 -13.049 251 0 44
-10.0511 29.3214 39.9314 251 0 44
-10.0511 44.5387 -20.4679 251 0 44
-10.0511 -23.8347 2.42671 251 0 44
-10.0511 -29.4667 -3.5168 251 0 44
-10.0511 15.4781 -34.0842 251 0 44
-10.0511 39.6569 -39.9811 251 0 44
-10.0511 -33.5091 -49.4258 251 0 44
-10.0511 49.4232 11.4224 251 0 44
-10.0511 18.3895 -37.1583 251 0 44
-10.0511 -39.2314 -29.0839 251 0 44
-10.0511 49.8137 -26.6867 251 0 44
-10.0511 -15.4865 -15.026 251 0 44
-10.0511 -45.323 -42.4885 251 0 44
-10.0511 -41.7601 26.5313 251 0 44
-10.0511 37.8688 -42.0902 251 0 44
-10.0511 -34.3054 -24.8397 251 0 44
-10.0511 30.5834 8.00546 251 0 44
-10.0511 -41.7789 37.3184 251 0 44
-10.0511 -32.5494 -10.9464 251 0 44
-10.0511 -29.2904 36.4013 251 0 44
-10.0511 24.1456 12.974 251 0 44
-10.0511 -3.48999 13.1953 251 0 44
-10.0511 -36.8859 4.07808 251 0 44
-10.0511 -20.9836 2.14707 251 0 44
-10.0511 -2.15884 -37.8689 251 0 44
-10.0511 -23.0508 5.82788 251 0 44
-10.0511 13.6194 14.0467 251 0 44
-10.0511 -45.9489 3.33325 251 0 44
-10.0511 -36.1072 -35.0517 251 0 44
-10.0511 -21.1009 -25.3136 251 0 44
-10.0511 -6.41801 40.5684 251 0 44
-10.0511 38.5622 2.87393 251 0 44
-10.0511 -24.8931 14.7884 251 0 44
-10.0511 4.01336 -32.7456 251 0 44
-10.0511 -5.94629 43.2589 251 0 44
-10.0511 -12.3533 -5.05528 251 0 44
-10.0511 46.7365 11.0204 251 0 44
-10.0511 19.4904 36.7394 251 0 44
-10.0511 16.114 -22.5161 251 0 44
-10.0511 -4.11409 39.5521 251 0 44
-10.0511 -31.0449 -36.847 251 0 44
-10.0511 9.74555 29.9842 251 0 44
-10.0511 18.7571 -28.7102 251 0 44
-10.0511 19.5339 -3.56156 251 0 44
-10.0511 40.0498 40.8054 251 0 44
-10.0511 -23.2065 5.38994 251 0 44
-10.0511 -32.2197 -16.1596 251 0 44
-10.0511 40.3892 -17.7006 251 0 44
-10.0511 -17.4123 7.28745 251 0 44
-10.0511 3.84748 -10.1714 251 0 44
-10.0511 4.18395 -40.2888 251 0 44
-10.0511 6.71859 -18.6441 251 0 44
-10.0511 -48.9444 -25.4825 251 0 44
-10.0511 43.8692 31.1107 251 0 44
-10.0511 -27.0517 -48.9085 251 0 44
-10.0511 29.4602 18.4345 251 0 44
-10.0511 -48.1872 -9.32961 251 0 44
-10.0511 7.56349 -35.0726 251 0 44
-10.0511 -39.0315 -45.0945 251 0 44
-10.0511 38.2081 -35.644 251 0 44
-10.0511 -25.657 30.4373 251 0 44
-10.0511 -31.8511 -38.6167 251 0 44
-10.0511 -24.5379 7.38626 251 0 44
-10.0511 -3.34689 27.4812 251 0 44
-10.0511 3.59621 -22.2 251 0 44
-10.0511 -3.20036 10.2788 251 0 44
-10.0511 -48.127 11.021 251 0 44
-10.0511 9.6842 -21.4578 251 0 44
-10.0511 -24.0522 -17.7906 251 0 44
-10.0511 3.69022 36.7745 251 0 44
-10.0511 -37.8569 -26.8057 251 0 44
-10.0511 26.7838 -39.8047 251 0 44
-10.0511 -8.27431 -17.0951 251 0 44
-10.0511 11.3593 33.6119 251 0 44
-10.0511 -24.4515 20.5183 251 0 44
-10.0511 6.05578 0.228881 251 0 44
-10.0511 18.0551 3.8309 251 0 44
-10.0511 47.8469 -24.7594 251 0 44
-10.0511 9.39532 -32.8676 251 0 44
-10.0511 19.2234 -21.9292 251 0 44
-10.0511 -49.8561 18.7823 251 0 44
-10.0511 -29.4095 -4.97467 251 0 44
-10.0511 16.3174 -47.3419 251 0 44
-10.0511 -17.846 -34.3941 251 0 44
-10.0511 -27.2839 -15.5146 251 0 44
-10.0511 43.0836 -0.579233 251 0 44
-10.0511 17.3666 -43.4258 251 0 44
-10.0511 7.5277 -47.5405 251 0 44
-10.0511 13.3026 -9.30871 251 0 44
-10.0511 25.7194 23.4844 251 0 44
-10.0511 16.9467 24.1593 251 0 44
-10.0511 8.83754 13.3565 251 0 44
-10.0511 12.9274 19.1461 251 0 44
-10.0511 38.9582 2.74135 251 0 44
-10.0511 33.8427 8.59094 251 0 44
-10.0511 -23.214 -15.6931 251 0 44
-10.0511 -20.7383 -28.4184 251 0 44
-10.0511 -25.9265 11.8664 251 0 44
-10.0511 42.9463 27.416 251 0 44
-10.0511 -6.22268 46.6392 251 0 44
-10.0511 37.9647 -3.25948 251 0 44
-10.0511 -31.9513 -32.0678 251 0 44
-10.0511 2.7136 -35.2297 251 0 44
-10.0511 27.7217 -13.1977 251 0 44
-10.0511 -25.9816 39.7304 251 0 44
-10.0511 -24.6495 24.1898 251 0 44
-10.0511 -35.8401 23.1288 251 0 44
-10.0511 -20.3554 26.8663 251 0 44
-10.0511 -16.9244 8.91425 251 0 44
-10.0511 -12.9791 -35.1343 251 0 44
-10.0511 -49.5298 39.2015 251 0 44
-10.0511 37.0371 34.4367 251 0 44
-10.0511 -44.6899 46.4175 251 0 44
-10.0511 -0.955576 17.779 251 0 44
-10.0511 -19.8024 -34.5452 251 0 44
-10.0511 9.44705 45.3345 251 0 44
-10.0511 -4.58802 -33.2445 251 0 44
-10.0511 -40.4518 -26.5775 251 0 44
-10.0511 11.5926 23.317 251 0 44
-10.0511 42.0224 35.6197 251 0 44
-10.0511 43.8444 -37.2733 251 0 44
-10.0511 43.7609 -27.3084 251 0 44
-10.0511 -19.6521 -24.2298 251 0 44
-10.0511 -49.3971 20.1523 251 0 44
-10.0511 19.6059 27.956 251 0 44
-10.0511 34.9583 48.0277 251 0 44
-10.0511 3.11055 -26.6498 251 0 44
-10.0511 -42.5102 13.8122 251 0 44
-10.0511 -5.40597 38.0594 251 0 44
-10.0511 -49.93 -0.934254 251 0 44
-10.0511 -23.8516 37.3456 251 0 44
-10.0511 4.91197 13.4544 251 0 44
-10.0511 14.7444 29.2103 251 0 44
-10.0511 14.0812 -33.6145 251 0 44
-10.0511 12.0812 35.4329 251 0 44
-10.0511 6.16119 -0.660396 251 0 44
-10.0511 -14.0331 48.3705 251 0 44
-10.0511 28.563 -44.9129 251 0 44
-10.0511 41.1275 6.35516 251 0 44
-10.0511 -34.1137 16.407 251 0 44
-10.0511 -41.4981 29.6341 251 0 44
-10.0511 -15.7725 12.3334 251 0 44
-10.0511 -49.1334 -47.9553 251 0 44
-10.0511 43.8231 -9.46485 251 0 44
-10.0511 -12.5598 -7.14609 251 0 44
-10.0511 8.57298 34.5573 251 0 44
-10.0511 -15.8941 14.9808 251 0 44
-10.0511 -40.9694 29.0085 251 0 44
-10.0511 42.4338 -21.6582 251 0 44
-10.0511 -3.91609 7.53982 251 0 44
-10.0511 -23.5626 13.0448 251 0 44
-10.0511 48.3002 -6.16074 251 0 44
-10.0511 38.8139 38.564 251 0 44
-10.0511 3.15787 -22.544 251 0 44
-10.0511 -2.55879 -31.1078 251 0 44
-10.0511 -32.6243 14.6315 251 0 44
-10.0511 -44.1264 31.0255 251 0 44
-10.0511 -42.1942 -47.5675 251 0 44
-10.0511 33.668 22.8344 251 0 44
-10.0511 41.7792 -29.5465 251 0 44
-10.0511 16.9626 -31.4781 251 0 44
-10.0511 -7.87241 35.9488 251 0 44
-10.0511 -48.6065 29.0765 251 0 44
-10.0511 7.30373 -49.1285 251 0 44
-10.0511 34.5883 34.3757 251 0 44
-10.0511 -0.933133 -26.445 251 0 44
-10.0511 44.3608 -43.2888 251 0 44
-10.0511 -30.3181 23.7394 251 0 44
-10.0511 31.0552 -6.17715 251 0 44
-10.0511 31.1562 -7.10427 251 0 44
-10.0511 20.0194 14.9301 251 0 44
-10.0511 -19.8087 36.9056 251 0 44
-10.0511 25.9757 34.2593 251 0 44
-10.0511 11.8221 -41.8451 251 0 44
-10.0511 -41.3598 8.62801 251 0 44
-10.0511 3.5755 18.9816 251 0 44
-10.0511 31.422 -25.0352 251 0 44
-10.0511 14.315 1.21112 251 0 44
-10.0511 19.9371 0.953497 251 0 44
-10.0511 -11.4313 -13.098 251 0 44
-10.0511 34.7553 -27.8624 251 0 44
-10.0511 -34.0075 -48.8179 251 0 44
-10.0511 11.5301 25.6498 251 0 44
-10.0511 4.63538 -15.2571 251 0 44
-10.0511 6.39009 -38.1359 251 0 44
-10.0511 -38.6448 38.4184 251 0 44
-10.0511 -2.75913 21.1386 251 0 44
-10.0511 45.2147 -40.8229 251 0 44
-10.0511 -18.9581 33.7417 251 0 44
-10.0511 2.03956 49.4129 251 0 44
-10.0511 -24.5987 11.4721 251 0 44
-10.0511 -5.5934 20.1736 251 0 44
-10.0511 7.33174 27.9074 251 0 44
-10.0511 -27.657 28.764 251 0 44
-10.0511 39.4194 -39.7713 251 0 44
-10.0511 -22.9916 -41.4712 251 0 44
-10.0511 41.2703 45.0058 251 0 44
-10.0511 -22.2532 -25.2014 251 0 44
-10.0511 8.91726 -27.3046 251 0 44
-10.0511 -46.939 -14.6239 251 0 44
-10.0511 -46.7554 -24.4813 251 0 44
-10.0511 -35.672 4.47581 251 0 44
-10.0511 -36.2174 13.7098 251 0 44
-10.0511 1.37586 31.8925 251 0 44
-10.0511 6.2965 -31.485 251 0 44
-10.0511 -31.6546 41.7073 251 0 44
-10.0511 -10.4031 -45.6529 251 0 44
-10.0511 -29.5667 38.599 251 0 44
-10.0511 -0.925734 3.77843 251 0 44
-10.0511 28.0369 43.0147 251 0 44
-10.0511 -13.059 46.1016 251 0 44
-10.0511 41.6744 17.0014 251 0 44
-10.0511 43.4681 10.916 251 0 44
-10.0511 -10.3002 -16.0886 251 0 44
-10.0511 -28.2567 13.6385 251 0 44
-10.0511 -24.8485 -8.14737 251 0 44
-10.0511 28.9143 31.3061 251 0 44
-10.0511 37.906 -33.8787 251 0 44
-10.0511 42.7823 -43.0106 251 0 44
-10.0511 -47.0448 -4.50378 251 0 44
-10.0511 2.82237 29.3177 251 0 44
-10.0511 -4.5023 -49.2796 251 0 44
-10.0511 -45.2224 27.1704 251 0 44
-10.0511 -46.5315 37.3169 251 0 44
-10.0511 44.2011 45.5252 251 0 44
-10.0511 -15.3566 39.4557 251 0 44
-10.0511 16.0537 12.8421 251 0 44
-10.0511 -21.0081 -43.7019 251 0 44
-10.0511 -4.56049 -6.05569 251 0 44
-10.0511 1.21257 -37.5859 251 0 44
-10.0511 -38.4596 -39.2057 251 0 44
-10.0511 -10.1194 42.2514 251 0 44
-10.0511 -27.7555 -19.7347 251 0 44
-10.0511 -36.4728 44.1238 251 0 44
-10.0511 -21.0401 -42.206 251 0 44
-10.0511 5.04581 -21.7851 251 0 44
-10.0511 43.932 34.7528 251 0 44
-10.0511 -24.7695 11.5982 251 0 44
-10.0511 -38.1423 44.5262 251 0 44
-10.0511 29.7895 10.4807 251 0 44
-10.0511 -31.4939 24.0026 251 0 44
-10.0511 -0.209662 18.9551 251 0 44
-10.0511 -1.51235 -33.2276 251 0 44
-10.0511 -25.987 -42.556 251 0 44
-10.0511 -25.8708 -19.7759 251 0 44
-10.0511 -48.1001 19.087 251 0 44
-10.0511 34.2865 13.9846 251 0 44
-10.0511 -10.2232 -30.5349 251 0 44
-10.0511 -44.2084 -38.0875 251 0 44
-10.0511 -25.1851 24.9072 251 0 44
-10.0511 -28.9832 -15.5165 251 0 44
-10.0511 43.1728 9.01096 251 0 44
-10.0511 -27.0663 22.7895 251 0 44
-10.0511 -44.5602 33.9509 251 0 44
-10.0511 2.55576 41.6268 251 0 44
-10.0511 -14.9126 -14.979 251 0 44
-10.0511 23.7913 -18.1741 251 0 44
-10.0511 -25.3313 25.39 251 0 44
-10.0511 -43.1292 -6.26409 251 0 44
-10.0511 18.1862 34.3208 251 0 44
-10.0511 -6.79659 47.4962 251 0 44
-10.0511 -29.1959 -36.168 251 0 44
-10.0511 37.1407 -21.0462 251 0 44
-10.0511 -34.1548 -40.8002 251 0 44
-10.0511 -26.0166 -33.6321 251 0 44
-10.0511 -30.3497 6.46373 251 0 44
-10.0511 38.2726 34.4942 251 0 44
-10.0511 22.8309 0.9566 251 0 44
-10.0511 11.6973 26.866 251 0 44
-10.0511 37.9177 -20.1404 251 0 44
-10.0511 31.2889 -29.4724 251 0 44
-10.0511 -37.9547 -34.932 251 0 44
-10.0511 -3.11971 47.8873 251 0 44
-10.0511 4.29528 -32.8152 251 0 44
-10.0511 35.1073 35.0722 251 0 44
-10.0511 -39.9475 -29.5428 251 0 44
-10.0511 -3.47693 -48.9976 251 0 44
-10.0511 -31.5312 48.7708 251 0 44
-10.0511 36.3415 -15.9942 251 0 44
-10.0511 -25.8292 26.5991 251 0 44
-10.0511 -40.0387 -0.849283 251 0 44
-10.0511 -15.8821 48.7331 251 0 44
-10.0511 -33.5853 -37.178 251 0 44
-10.0511 25.0147 44.8123 251 0 44
-10.0511 -5.7373 2.73401 251 0 44
-10.0511 23.9835 45.7238 251 0 44
-10.0511 -48.019 30.8857 251 0 44
-10.0511 13.4923 -31.43 251 0 44
-10.0511 -49.9779 -5.79756 251 0 44
-10.0511 38.0837 23.1232 251 0 44
-10.0511 32.1303 -3.79578 251 0 44
-10.0511 -44.8667 4.24671 251 0 44
-10.0511 2.61547 -35.3234 251 0 44
-10.0511 -7.06893 48.1735 251 0 44
-10.0511 47.1846 -24.4328 251 0 44
12.7207 -9.98965 -46.5491 0 251 44
-34.8635 -9.98965 -35.6667 251 0 44
41.0811 -9.98965 27.5815 0 251 44
-18.6547 -9.98965 37.5986 251 0 44
43.8449 -9.98965 47.8028 0 251 44
-24.2091 -9.98965 18.8201 251 0 44
-14.9057 -9.98965 -13.9352 251 0 44
-12.7139 -9.98965 -30.0272 251 0 44
-34.8484 -9.98965 32.682 251 0 44
46.693 -9.98965 -44.7278 0 251 44
-47.5564 -9.98965 12.1195 251 0 44
0.088252 -9.98965 23.5837 0 251 44
-18.7246 -9.98965 -47.9464 251 0 44
-29.6455 -9.98965 32.1512 251 0 44
-36.8827 -9.98965 1.25268 251 0 44
-29.8392 -9.98965 37.2524 251 0 44
-32.5517 -9.98965 44.5855 251 0 44
-26.3829 -9.98965 4.22017 251 0 44
-25.0626 -9.98965 -1.11295 251 0 44
-36.9592 -9.98965 -4.91496 251 0 44
38.993 -9.98965 46.2426 0 251 44
9.33504 -9.98965 48.3708 0 251 44
-29.9379 -9.98965 -29.8369 251 0 44
33.8311 -9.98965 33.4693 0 251 44
46.4087 -9.98965 -12.4686 0 251 44
20.1997 -9.98965 11.9802 0 251 44
8.00246 -9.98965 33.5776 0 251 44
38.6772 -9.98965 -45.0988 0 251 44
17.482 -9.98965 38.0499 0 251 44
-15.6393 -9.98965 3.29461 251 0 44
-16.1468 -9.98965 40.2133 251 0 44
17.5276 -9.98965 34.9973 0 251 44
-28.714 -9.98965 -30.9736 251 0 44
-22.8204 -9.98965 38.2139 251 0 44
-1.89422 -9.98965 -24.7104 251 0 44
-19.42 -9.98965 -24.3562 251 0 44
-41.2687 -9.98965 18.1194 251 0 44
-9.60651 -9.98965 39.4614 251 0 44
-27.719 -9.98965 -10.2568 251 0 44
26.0262 -9.98965 -39.942 0 251 44
24.5769 -9.98965 11.9768 0 251 44
40.62 -9.98965 -33.4873 0 251 44
-28.8116 -9.98965 38.3619 251 0 44
-26.3589 -9.98965 26.7046 251 0 44
23.9443 -9.98965 -23.9195 0 251 44
-20.6808 -9.98965 -43.912 251 0 44
-38.0906 -9.98965 22.4749 251 0 44
14.2067 -9.98965 5.73618 0 251 44
-30.8282 -9.98965 21.7517 251 0 44
42.6525 -9.98965 -29.8403 0 251 44
-5.71424 -9.98965 -11.3939 251 0 44
-14.062 -9.98965 -26.4577 251 0 44
-34.1544 -9.98965 -8.47697 251 0 44
-40.7399 -9.98965 -40.386 251 0 44
-42.6037 -9.98965 26.3941 251 0 44
-33.5029 -9.98965 44.4851 251 0 44
-39.8322 -9.98965 -40.419 251 0 44
25.7144 -9.98965 17.9688 0 251 44
-27.095 -9.98965 11.034 251 0 44
-36.8263 -9.98965 19.3168 251 0 44
-34.9376 -9.98965 -19.9669 251 0 44
39.5523 -9.98965 -39.5981 0 251 44
33.6482 -9.98965 42.3795 0 251 44
-47.9988 -9.98965 -16.121 251 0 44
-41.2057 -9.98965 -38.9708 251 0 44
-14.5312 -9.98965 -7.61213 251 0 44
38.3048 -9.98965 -15.2843 0 251 44
-17.4409 -9.98965 36.3636 251 0 44
-24.3306 -9.98965 47.1653 251 0 44
3.45756 -9.98965 48.6683 0 251 44
1.91753 -9.98965 -0.508164 0 251 44
22.455 -9.98965 18.6532 0 251 44
5.21221 -9.98965 10.3426 0 251 44
-11.2653 -9.98965 -46.1951 251 0 44
-3.03377 -9.98965 -3.79885 251 0 44
8.67615 -9.98965 39.6598 0 251 44
-20.6043 -9.98965 -20.1236 251 0 44
14.0511 -9.98965 -26.5711 0 251 44
-43.4126 -9.98965 34.0195 251 0 44
34.6382 -9.98965 -13.5811 0 251 44
15.6032 -9.98965 16.496 0 251 44
16.0971 -9.98965 11.7678 0 251 44
42.5876 -9.98965 -5.46539 0 251 44
46.1274 -9.98965 14.9788 0 251 44
-16.7518 -9.98965 -40.9886 251 0 44
11.9977 -9.98965 -17.9842 0 251 44
-0.982878 -9.98965 -47.9107 251 0 44
-21.4694 -9.98965 -44.3261 251 0 44
-40.1052 -9.98965 -7.46604 251 0 44
-47.7199 -9.98965 36.4223 251 0 44
-42.1754 -9.98965 2.97234 251 0 44
39.9667 -9.98965 -10.722 0 251 44
-44.6585 -9.98965 -1.71924 251 0 44
-47.7385 -9.98965 32.3509 251 0 44
-39.8959 -9.98965 -21.6175 251 0 44
15.1445 -9.98965 -25.3456 0 251 44
-41.7861 -9.98965 -16.2188 251 0 44
12.3202 -9.98965 -12.7269 0 251 44
-14.1847 -9.98965 18.3561 251 0 44
11.0258 -9.98965 -38.3111 0 251 44
-3.34511 -9.98965 -37.2571 251 0 44
46.2518 -9.98965 14.5951 0 251 44
28.8763 -9.98965 -7.48974 0 251 44
-26.6794 -9.98965 -36.4716 251 0 44
24.163 -9.98965 5.16382 0 251 44
27.475 -9.98965 27.9711 0 251 44
-29.994 -9.98965 -39.5987 251 0 44
-33.069 -9.98965 16.9885 251 0 44
-0.900632 -9.98965 -12.231 251 0 44
23.481 -9.98965 46.1223 0 251 44
25.0528 -9.98965 -13.4921 0 251 44
-8.66887 -9.98965 -2.84414 251 0 44
35.6716 -9.98965 -35.6809 0 251 44
-17.2005 -9.98965 -27.4922 251 0 44
-20.5232 -9.98965 -14.0932 251 0 44
-26.6983 -9.98965 16.3323 251 0 44
40.0714 -9.98965 8.25807 0 251 44
-27.6022 -9.98965 -48.9064 251 0 44
39.5762 -9.98965 -2.11733 0 251 44
-26.7492 -9.98965 40.6054 251 0 44
43.5714 -9.98965 37.2336 0 251 44
-26.9073 -9.98965 -17.2699 251 0 44
-35.1005 -9.98965 13.7301 251 0 44
-21.6525 -9.98965 -47.2122 251 0 44
45.9773 -9.98965 48.5887 0 251 44
7.9472 -9.98965 -1.05853 0 251 44
-5.5113 -9.98965 -44.4159 251 0 44
13.5237 -9.98965 11.2584 0 251 44
-32.7417 -9.98965 18.405 251 0 44
30.6828 -9.98965 5.00006 0 251 44
-8.32313 -9.98965 0.716769 251 0 44
-8.3888 -9.98965 -39.314 251 0 44
34.181 -9.98965 37.1586 0 251 44
3.72867 -9.98965 30.6976 0 251 44
-46.9323 -9.98965 8.66387 251 0 44
-30.0484 -9.98965 29.6134 251 0 44
-24.2268 -9.98965 30.6028 251 0 44
-48.2965 -9.98965 1.6355 251 0 44
33.491 -9.98965 41.5057 0 251 44
-37.1448 -9.98965 -2.59477 251 0 44
25.8269 -9.98965 48.3662 0 251 44
30.4252 -9.98965 -9.77366 0 251 44
-19.6605 -9.98965 -36.1889 251 0 44
-8.3571 -9.98965 45.0665 251 0 44
41.9584 -9.98965 -4.07494 0 251 44
48.2302 -9.98965 -18.9957 0 251 44
30.834 -9.98965 -35.1029 0 251 44
-44.3746 -9.98965 -13.9744 251 0 44
-49.9059 -9.98965 17.0738 251 0 44
-9.11251 -9.98965 -13.6776 251 0 44
-36.0283 -9.98965 17.0574 251 0 44
31.6407 -9.98965 -24.5461 0 251 44
36.2859 -9.98965 -47.5431 0 251 44
19.4391 -9.98965 -31.1209 0 251 44
-1.56141 -9.98965 22.0151 255 0 0
-3.97452 -9.98965 -44.2221 251 0 44
-14.3064 -9.98965 35.3396 251 0 44
40.4443 -9.98965 -28.46 0 251 44
-47.0626 -9.98965 -28.8887 251 0 44
-33.7668 -9.98965 18.7457 251 0 44
-1.33948 -9.98965 -33.7683 251 0 44
-23.2954 -9.98965 -37.5427 251 0 44
-9.36526 -9.98965 -49.6343 251 0 44
49.8815 -9.98965 -9.24265 0 251 44
-12.6299 -9.98965 -6.44266 251 0 44
-10.7871 -9.98965 40.334 251 0 44
31.1709 -9.98965 -44.1646 0 251 44
42.2847 -9.98965 -15.35 0 251 44
-1.10274 -9.98965 33.5012 255 0 0
-29.3521 -9.98965 -24.2033 251 0 44
26.8816 -9.98965 35.0007 0 251 44
40.7361 -9.98965 19.5981 0 251 44
44.4093 -9.98965 -44.8003 0 251 44
47.2394 -9.98965 2.63926 0 251 44
14.6343 -9.98965 -40.2494 0 251 44
-31.2696 -9.98965 17.9832 251 0 44
-45.2021 -9.98965 -1.03615 251 0 44
48.2846 -9.98965 11.7233 0 251 44
40.3452 -9.98965 18.6334 0 251 44
30.294 -9.98965 13.9156 0 251 44
-10.2621 -9.98965 -41.3098 251 0 44
4.92069 -9.98965 3.91401 0 251 44
-6.01446 -9.98965 -4.86929 251 0 44
15.8015 -9.98965 -48.865 0 251 44
14.1729 -9.98965 -29.0995 0 251 44
17.8804 -9.98965 19.6978 0 251 44
6.62252 -9.98965 -16.5809 0 251 44
-17.8736 -9.98965 -14.8145 251 0 44
-46.249 -9.98965 48.5778 251 0 44
-25.6446 -9.98965 8.27768 251 0 44
-13.6546 -9.98965 1.3996 251 0 44
5.70839 -9.98965 -14.5665 0 251 44
-35.4366 -9.98965 -38.885 251 0 44
48.0063 -9.98965 -39.124 0 251 44
-17.795 -9.98965 43.5632 251 0 44
-2.31947 -9.98965 46.7056 255 0 0
-16.1844 -9.98965 49.885 251 0 44
-12.1377 -9.98965 19.0299 251 0 44
-24.058 -9.98965 -16.6251 251 0 44
22.1045 -9.98965 -6.29824 0 251 44
18.8276 -9.98965 -7.75117 0 251 44
33.2187 -9.98965 -40.8749 0 251 44
-2.96818 -9.98965 -21.7168 251 0 44
-6.74375 -9.98965 -48.5378 251 0 44
-13.8806 -9.98965 27.3407 251 0 44
15.8931 -9.98965 9.47564 0 251 44
31.8167 -9.98965 46.5654 0 251 44
-4.62969 -9.98965 -44.7721 251 0 44
-8.47934 -9.98965 -34.4688 251 0 44
-37.2527 -9.98965 -4.91057 251 0 44
14.4969 -9.98965 -3.3548 0 251 44
-45.4644 -9.98965 -32.1797 251 0 44
-18.3668 -9.98965 41.3218 251 0 44
47.7968 -9.98965 -38.2298 0 251 44
-48.9943 -9.98965 34.4612 251 0 44
20.3138 -9.98965 35.0622 0 251 44
34.0013 -9.98965 3.93213 0 251 44
32.1719 -9.98965 40.9181 0 251 44
-42.7421 -9.98965 -20.7147 251 0 44
-39.1184 -9.98965 9.03098 251 0 44
35.4689 -9.98965 46.8096 0 251 44
2.24761 -9.98965 -39.3829 251 0 44
-31.531 -9.98965 37.882 251 0 44
-40.2357 -9.98965 -30.3697 251 0 44
-15.9249 -9.98965 -5.64776 251 0 44
-20.9881 -9.98965 -44.5031 251 0 44
28.7412 -9.98965 -23.1835 0 251 44
-11.3165 -9.98965 43.8683 251 0 44
-29.5234 -9.98965 26.301 251 0 44
37.0184 -9.98965 -45.4389 0 251 44
-34.1695 -9.98965 -40.6144 251 0 44
32.3471 -9.98965 -13.1212 0 251 44
-0.274529 -9.98965 -0.103997 251 0 44
-9.32174 -9.98965 19.4303 251 0 44
7.75096 -9.98965 28.7278 0 251 44
12.2627 -9.98965 17.7348 0 251 44
35.5798 -9.98965 35.9552 0 251 44
-0.640098 -9.98965 25.2395 255 0 0
-8.93368 -9.98965 -12.3618 251 0 44
21.5199 -9.98965 -13.7171 0 251 44
-24.7033 -9.98965 -31.7228 251 0 44
-49.2086 -9.98965 49.466 251 0 44
-19.7834 -9.98965 41.051 251 0 44
-49.5602 -9.98965 11.9292 251 0 44
-17.7654 -9.98965 -3.81471 251 0 44
-11.0119 -9.98965 -4.84183 251 0 44
-11.6049 -9.98965 1.3153 251 0 44
-48.8542 -9.98965 -3.55739 251 0 44
-33.8886 -9.98965 19.6569 251 0 44
31.413 -9.98965 -17.9788 0 251 44
-9.64363 -9.98965 -27.0146 251 0 44
-38.7649 -9.98965 -28.7092 251 0 44
25.9423 -9.98965 32.9982 0 251 44
2.84338 -9.98965 -7.01191 0 251 44
-27.1312 -9.98965 27.1538 251 0 44
29.3829 -9.98965 -25.4403 0 251 44
33.686 -9.98965 -25.4001 0 251 44
4.83779 -9.98965 31.178 0 251 44
-3.25979 -9.98965 -44.7215 251 0 44
-10.3707 -9.98965 -21.4634 251 0 44
-34.9819 -9.98965 -39.1886 251 0 44
18.1824 -9.98965 -29.8871 0 251 44
-8.9219 -9.98965 -43.0898 251 0 44
44.2873 -9.98965 -40.4295 0 251 44
30.677 -9.98965 16.0973 0 251 44
-49.9447 -9.98965 -38.3674 251 0 44
41.6476 -9.98965 -8.69464 0 251 44
38.733 -9.98965 25.361 0 251 44
-49.2344 -9.98965 45.7865 251 0 44
-38.3198 -9.98965 -44.9455 251 0 44
26.8426 -9.98965 -31.9241 0 251 44
-13.7547 -9.98965 20.1983 251 0 44
-23.1288 -9.98965 -26.6924 251 0 44
-22.0024 -9.98965 4.02528 251 0 44
-11.7635 -9.98965 -3.99215 251 0 44
14.9726 -9.98965 19.5182 0 251 44
-41.6002 -9.98965 21.2667 251 0 44
-28.6855 -9.98965 14.0839 251 0 44
32.0209 -9.98965 48.1258 0 251 44
8.30412 -9.98965 -6.58569 0 251 44
38.5751 -9.98965 11.0106 0 251 44
48.2066 -9.98965 -34.1852 0 251 44
-14.5951 -9.98965 -26.3765 251 0 44
-30.4701 -9.98965 -6.16883 251 0 44
-17.1628 -9.98965 38.3868 251 0 44
9.12989 -9.98965 -29.1131 0 251 44
1.78207 -9.98965 -38.6309 251 0 44
-19.6489 -9.98965 26.7423 251 0 44
0.596608 -9.98965 -46.1672 251 0 44
-49.4557 -9.98965 11.3801 251 0 44
-1.21114 -9.98965 46.2565 255 0 0
25.2583 -9.98965 -44.2661 0 251 44
25.7219 -9.98965 31.6663 0 251 44
35.5138 -9.98965 13.0787 0 251 44
38.3641 -9.98965 46.7793 0 251 44
-2.70536 -9.98965 -47.0166 251 0 44
29.9948 -9.98965 -7.26802 0 251 44
20.1458 -9.98965 27.5985 0 251 44
-43.9139 -9.98965 -42.4235 251 0 44
34.7765 -9.98965 -41.71 0 251 44
35.4899 -9.98965 18.8475 0 251 44
48.2878 -9.98965 -38.5119 0 251 44
33.2853 -9.98965 15.1662 0 251 44
-24.0788 -9.98965 9.9263 251 0 44
15.0498 -9.98965 -7.75329 0 251 44
-42.1708 -9.98965 -2.7768 251 0 44
5.22379 -9.98965 -2.55512 0 251 44
24.265 -9.98965 -26.0272 0 251 44
-31.8488 -9.98965 35.0588 251 0 44
-3.23238 -9.98965 -24.812 251 0 44
-25.2971 -9.98965 -4.72346 251 0 44
46.287 -9.98965 -23.0783 0 251 44
-39.9712 -9.98965 18.0741 251 0 44
29.6358 -9.98965 -9.45018 0 251 44
-30.14 -9.98965 21.6293 251 0 44
-39.8702 -9.98965 -41.499 251 0 44
-11.3648 -9.98965 7.40132 251 0 44
38.9643 -9.98965 49.4583 0 251 44
26.0002 -9.98965 28.613 0 251 44
12.3346 -9.98965 40.5999 0 251 44
0.555453 -9.98965 -24.3455 251 0 44
10.535 -9.98965 17.4517 0 251 44
13.9768 -9.98965 22.806 0 251 44
25.7113 -9.98965 7.17755 0 251 44
-47.6648 -9.98965 -26.3328 251 0 44
-14.5959 -9.98965 27.533 251 0 44
-8.60347 -9.98965 8.34504 251 0 44
-6.67437 -9.98965 29.4368 251 0 44
29.4454 -9.98965 26.475 0 251 44
7.47468 -9.98965 25.2606 0 251 44
-10.2939 -9.98965 45.8312 251 0 44
-0.563564 -9.98965 -47.3591 251 0 44
4.17353 -9.98965 15.2275 0 251 44
-7.37154 -9.98965 -30.1512 251 0 44
-6.58023 -9.98965 -49.7831 251 0 44
-38.7831 -9.98965 -18.9883 251 0 44
2.74282 -9.98965 26.8046 0 251 44
-24.6874 -9.98965 27.7049 251 0 44
6.32378 -9.98965 25.7399 0 251 44
-33.2984 -9.98965 1.57633 251 0 44
-39.4864 -9.98965 -31.4714 251 0 44
5.70358 -9.98965 -42.5418 251 0 44
-12.3077 -9.98965 -28.394 251 0 44
29.1764 -9.98965 -39.6086 0 251 44
-44.2722 -9.98965 49.27 251 0 44
-31.0942 -9.98965 21.4392 251 0 44
45.7142 -9.98965 41.1024 0 251 44
2.37162 -9.98965 -15.9399 251 0 44
32.4404 -9.98965 19.5358 0 251 44
20.0499 -9.98965 -16.672 0 251 44
-4.97705 -9.98965 2.70108 251 0 44
-11.9827 -9.98965 -5.19795 251 0 44
23.54 -9.98965 48.9544 0 251 44
15.9279 -9.98965 20.4256 0 251 44
36.4071 -9.98965 3.50656 0 251 44
-5.49645 -9.98965 30.5047 251 0 44
-34.5763 -9.98965 -17.9488 251 0 44
4.90316 -9.98965 0.178165 0 251 44
-36.049 -9.98965 -33.1774 251 0 44
14.5493 -9.98965 -24.9865 0 251 44
41.1425 -9.98965 -39.8483 0 251 44
46.1449 -9.98965 23.094 0 251 44
12.9087 -9.98965 -9.93788 0 251 44
-17.9559 -9.98965 6.81315 251 0 44
6.14552 -9.98965 -15.6343 0 251 44
-9.83447 -9.98965 33.1907 251 0 44
41.5945 -9.98965 13.2743 0 251 44
-46.0806 -9.98965 49.5729 251 0 44
28.4524 -9.98965 -39.4948 0 251 44
26.2851 -9.98965 14.1407 0 251 44
-24.0293 -9.98965 4.33028 251 0 44
32.0159 -9.98965 24.8612 0 251 44
39.1542 -9.98965 45.2146 0 251 44
4.0271 -9.98965 -12.784 0 251 44
33.7885 -9.98965 -27.0737 0 251 44
-38.3814 -9.98965 -1.51143 251 0 44
-13.5678 -9.98965 41.7905 251 0 44
49.7561 -9.98965 34.3835 0 251 44
-15.1716 -9.98965 26.2897 251 0 44
34.0131 -9.98965 -20.3676 0 251 44
44.2359 -9.98965 14.0326 0 251 44
7.01936 -9.98965 49.394 0 251 44
-15.2777 -9.98965 -26.2625 251 0 44
2.8815 -9.98965 -44.2827 251 0 44
19.2466 -9.98965 -38.6125 0 251 44
-36.6332 -9.98965 40.3383 251 0 44
48.2067 -9.98965 -25.8111 0 251 44
41.9021 -9.98965 21.5609 0 251 44
-19.5927 -9.98965 -47.633 251 0 44
-27.6264 -9.98965 -22.561 251 0 44
8.94708 -9.98965 -49.9857 0 251 44
17.9723 -9.98965 2.58828 0 251 44
-0.100539 -9.98965 -49.943 251 0 44
22.2153 -9.98965 14.4569 0 251 44
3.08577 -9.98965 -2.53201 0 251 44
20.7635 -9.98965 -13.944 0 251 44
4.42782 -9.98965 -3.74128 0 251 44
19.8812 -9.98965 -25.7096 0 251 44
-7.47614 -9.98965 41.1029 251 0 44
-47.3121 -9.98965 -48.4609 251 0 44
41.7023 -9.98965 -29.1172 0 251 44
13.7471 -9.98965 46.7706 0 251 44
-3.91323 -9.98965 7.30737 251 0 44
3.98578 -9.98965 -40.2743 251 0 44
3.87481 -9.98965 21.1275 0 251 44
6.71577 -9.98965 44.3481 0 251 44
-44.7823 -9.98965 -36.8238 251 0 44
-14.7757 -9.98965 -13.2855 251 0 44
48.9901 -9.98965 10.4036 0 251 44
-11.7912 -9.98965 -17.6426 251 0 44
-38.072 -9.98965 9.97029 251 0 44
3.04945 -9.98965 16.0745 0 251 44
-45.9425 -9.98965 14.9122 251 0 44
36.5726 -9.98965 14.0557 0 251 44
-44.9963 -9.98965 4.20728 251 0 44
16.5723 -9.98965 27.9213 0 251 44
-16.4184 -9.98965 3.88867 251 0 44
-10.9856 -9.98965 -14.9632 251 0 44
-8.1368 -9.98965 1.95069 251 0 44
37.3852 -9.98965 38.2401 0 251 44
3.88463 -9.98965 -28.6929 251 0 44
-6.34635 -9.98965 22.6958 251 0 44
2.76059 -9.98965 29.4082 0 251 44
17.7682 -9.98965 -24.9856 0 251 44
15.6584 -9.98965 1.33232 0 251 44
5.15654 -9.98965 46.6928 0 251 44
40.6533 -9.98965 14.4548 0 251 44
27.3835 -9.98965 21.3071 0 251 44
-6.95475 -9.98965 -35.4104 251 0 44
39.1026 -9.98965 -33.6663 0 251 44
-35.3389 -9.98965 7.72989 251 0 44
31.9046 -9.98965 14.8163 0 251 44
15.0467 -9.98965 -28.4326 0 251 44
-2.72238 -9.98965 -37.639 251 0 44
11.3038 -9.98965 -7.98135 0 251 44
23.7055 -9.98965 -2.65212 0 251 44
8.06857 -9.98965 -38.7161 0 251 44
-23.1487 -9.98965 37.3127 251 0 44
-33.8695 -9.98965 34.2017 251 0 44
-36.8882 -9.98965 -18.3743 251 0 44
49.5108 -9.98965 46.3209 0 251 44
-36.8014 -9.98965 -23.7698 251 0 44
-10.8631 -9.98965 -21.2699 251 0 44
-5.4861 -9.98965 -23.9262 251 0 44
20.2613 -9.98965 -20.9245 0 251 44
-36.1003 -9.98965 42.847 251 0 44
34.0772 -9.98965 -5.53196 0 251 44
-9.06293 -9.98965 3.38354 251 0 44
24.0299 -9.98965 11.5155 0 251 44
-29.7083 -9.98965 -8.25888 251 0 44
35.2649 -9.98965 46.6195 0 251 44
15.8069 -9.98965 28.7135 0 251 44
-45.4779 -9.98965 -37.4547 251 0 44
-40.7858 -9.98965 31.2881 251 0 44
15.7995 -9.98965 -1.35345 0 251 44
27.9755 -9.98965 44.197 0 251 44
-37.731 -9.98965 -42.907 251 0 44
31.3982 -9.98965 44.0939 0 251 44
2.80279 -9.98965 -3.07643 0 251 44
38.5881 -9.98965 -21.6246 0 251 44
4.18749 -9.98965 -34.9682 251 0 44
-31.265 -9.98965 -25.194 251 0 44
25.1434 -9.98965 24.8591 0 251 44
-22.3684 -9.98965 33.1786 251 0 44
41.2411 -9.98965 3.10726 0 251 44
40.858 -9.98965 28.1214 0 251 44
27.2372 -9.98965 46.7086 0 251 44
-49.7001 -9.98965 8.69432 251 0 44
41.9218 -9.98965 -23.2408 0 251 44
-21.6206 -9.98965 -35.6577 251 0 44
-40.234 -9.98965 37.2399 251 0 44
24.0234 -9.98965 -17.2932 0 251 44
7.22094 -9.98965 -36.2631 0 251 44
22.2701 -9.98965 -47.5132 0 251 44
-36.8381 -9.98965 -49.2075 251 0 44
-12.8809 -9.98965 30.1963 251 0 44
49.3788 -9.98965 -25.7049 0 251 44
-9.69975 -9.98965 -8.15728 251 0 44
2.18427 -9.98965 1.60356 0 251 44
-17.2466 -9.98965 -36.4425 251 0 44
28.1017 -9.98965 -18.0659 0 251 44
-21.1341 -9.98965 -42.9284 251 0 44
-32.3475 -9.98965 -27.2338 251 0 44
-7.46002 -9.98965 22.1087 251 0 44
-1.60706 -9.98965 27.639 255 0 0
4.81888 -9.98965 9.97683 0 251 44
-9.88036 -9.98965 -33.7456 251 0 44
29.6969 -9.98965 -7.73626 0 251 44
-13.964 -9.98965 -32.0448 251 0 44
-43.8362 -9.98965 -46.2244 251 0 44
-43.0804 -9.98965 -36.7981 251 0 44
-48.6963 -9.98965 6.22279 251 0 44
-28.9084 -9.98965 12.6062 251 0 44
-17.7836 -9.98965 -12.5124 251 0 44
12.1802 -9.98965 -24.4234 0 251 44
13.5224 -9.98965 15.6868 0 251 44
41.953 -9.98965 -17.5864 0 251 44
2.61779 -9.98965 -46.0105 251 0 44
-19.6627 -9.98965 22.4963 251 0 44
43.2865 -9.98965 -24.1763 0 251 44
1.37362 -9.98965 11.4203 0 251 44
-15.1851 -9.98965 -22.876 251 0 44
-13.4373 -9.98965 -28.8244 251 0 44
41.9173 -9.98965 -4.73821 0 251 44
-30.7545 -9.98965 6.8555 251 0 44
-29.4859 -9.98965 -31.2405 251 0 44
31.7682 -9.98965 40.5787 0 251 44
10.274 -9.98965 26.9716 0 251 44
-33.1123 -9.98965 0.467102 251 0 44
-3.80582 -9.98965 15.7445 251 0 44
-15.9484 -9.98965 -46.6599 251 0 44
-39.7716 -9.98965 37.965 251 0 44
29.319 -9.98965 -10.3739 0 251 44
45.8443 -9.98965 3.01976 0 251 44
-22.5315 -9.98965 -20.4026 251 0 44
42.1853 -9.98965 18.8365 0 251 44
9.85034 -9.98965 46.6589 0 251 44
7.52243 -9.98965 44.6007 0 251 44
-40.8326 -9.98965 47.2279 251 0 44
-11.3001 -9.98965 -8.8218 251 0 44
-48.3072 -9.98965 -40.5931 251 0 44
-40.1185 -9.98965 -20.4924 251 0 44
-44.9672 -9.98965 -38.7165 251 0 44
-17.1493 -9.98965 -10.2578 251 0 44
-43.6067 -9.98965 30.7151 251 0 44
-11.5022 -9.98965 -45.522 251 0 44
-14.8261 -9.98965 30.0444 251 0 44
34.7546 -9.98965 49.2674 0 251 44
-34.3495 -9.98965 -9.78949 251 0 44
8.53996 -9.98965 48.0613 0 251 44
33.2486 -9.98965 -7.73465 0 251 44
28.7987 -9.98965 -35.0014 0 251 44
31.3035 -9.98965 40.2617 0 251 44
22.5258 -9.98965 -10.4939 0 251 44
-38.1812 -9.98965 -26.0928 251 0 44
26.6784 -9.98965 22.6396 0 251 44
45.3197 -9.98965 25.5454 0 251 44
-44.3827 -9.98965 33.4825 251 0 44
25.1192 -9.98965 -14.53 0 251 44
-41.4992 -9.98965 -7.84483 251 0 44
-17.1062 -9.98965 -23.1346 251 0 44
12.6509 -9.98965 5.15885 0 251 44
35.5918 -9.98965 -39.6582 0 251 44
-27.1897 -9.98965 -15.5961 251 0 44
29.6623 -9.98965 -4.23101 0 251 44
-27.843 -9.98965 6.54367 251 0 44
-14.7027 -9.98965 -16.1327 251 0 44
-30.4788 -9.98965 19.522 251 0 44
16.5859 -9.98965 11.6654 0 251 44
-43.2107 -9.98965 -44.8993 251 0 44
28.8924 -9.98965 11.9169 0 251 44
-2.46252 -9.98965 45.9552 255 0 0
-14.8959 -9.98965 -33.3816 251 0 44
-48.679 -9.98965 -41.0551 251 0 44
-23.3665 -9.98965 38.1945 251 0 44
-35.2174 -9.98965 34.7621 251 0 44
-9.32714 -9.98965 44.007 251 0 44
26.3914 -9.98965 -27.8703 0 251 44
18.9624 -9.98965 1.36069 0 251 44
18.2788 -9.98965 -0.00873298 0 251 44
49.3783 -9.98965 -29.0711 0 251 44
8.79608 -9.98965 7.45655 0 251 44
-45.2872 -9.98965 -31.3501 251 0 44
8.06404 -9.98965 24.2871 0 251 44
-25.7203 -9.98965 36.4012 251 0 44
-33.048 -9.98965 -33.4053 251 0 44
40.8237 -9.98965 27.4007 0 251 44
24.0127 -9.98965 -38.4788 0 251 44
17.598 -9.98965 -45.9613 0 251 44
-29.2347 -9.98965 -23.5726 251 0 44
33.3627 -9.98965 -10.075 0 251 44
-28.815 -9.98965 -19.6893 251 0 44
-0.313433 -9.98965 17.5402 255 0 0
15.0266 -9.98965 11.4575 0 251 44
40.3425 -9.98965 -10.895 0 251 44
48.1586 -9.98965 49.2742 0 251 44
-2.71259 -9.98965 -18.2497 251 0 44
-15.5843 -9.98965 -25.142 251 0 44
-42.4095 -9.98965 -9.39977 251 0 44
-22.8881 -9.98965 -23.3586 251 0 44
25.4336 -9.98965 -11.4779 0 251 44
28.4883 -9.98965 27.7246 0 251 44
22.5644 -9.98965 -1.67115 0 251 44
33.1791 -9.98965 -17.3848 0 251 44
-36.4708 -9.98965 -18.3936 251 0 44
15.4027 -9.98965 -26.7032 0 251 44
44.5277 -9.98965 29.6676 0 251 44
31.7236 -9.98965 25.7737 0 251 44
-23.7975 -9.98965 44.7381 251 0 44
42.8308 -9.98965 27.0337 0 251 44
-26.3707 -9.98965 -1.78592 251 0 44
-22.5454 -9.98965 44.7708 251 0 44
-37.1618 -9.98965 32.2553 251 0 44
-21.4411 -9.98965 32.6881 251 0 44
-43.0357 -9.98965 -4.72254 251 0 44
4.41767 -9.98965 7.17752 0 251 44
-10.9313 -9.98965 -41.5859 251 0 44
-36.794 -9.98965 13.1259 251 0 44
-5.27799 -9.98965 -31.8786 251 0 44
-25.9447 -9.98965 -41.185 251 0 44
-42.4534 -9.98965 29.0458 251 0 44
8.30741 -9.98965 -10.4965 0 251 44
-11.028 -9.98965 -39.4012 251 0 44
16.453 -9.98965 29.901 0 251 44
-5.40116 -9.98965 -5.5305 251 0 44
24.6657 -9.98965 -25.4117 0 251 44
-36.9128 -9.98965 -30.4958 251 0 44
5.5723 -9.98965 48.4647 0 251 44
-49.2764 -9.98965 41.8474 251 0 44
23.5232 -9.98965 20.8136 0 251 44
-20.0066 -9.98965 13.1466 251 0 44
39.4482 -9.98965 44.8571 0 251 44
-20.2572 -9.98965 6.60215 251 0 44
-15.1147 -9.98965 9.54451 251 0 44
-29.3169 -9.98965 1.07697 251 0 44
-40.9718 -9.98965 46.8526 251 0 44
-29.1697 -9.98965 46.96 251 0 44
-22.1057 -9.98965 -46.3163 251 0 44
-23.7625 -9.98965 -36.4258 251 0 44
38.6937 -9.98965 25.3904 0 251 44
47.8382 -9.98965 -44.1542 0 251 44
36.7152 -9.98965 -48.1603 0 251 44
-47.417 -9.98965 -23.4941 251 0 44
31.186 -9.98965 24.4625 0 251 44
21.3323 -9.98965 31.9262 0 251 44
-25.74 -9.98965 25.2344 251 0 44
4.15367 -9.98965 7.32952 0 251 44
-17.4375 -9.98965 23.9724 251 0 44
0.250092 -9.98965 10.8538 0 251 44
38.3803 -9.98965 32.6149 0 251 44
20.1779 -9.98965 33.0348 0 251 44
47.9882 -9.98965 -6.67724 0 251 44
-16.2558 -9.98965 31.8625 251 0 44
0.202995 -9.98965 7.96189 0 251 44
-32.2077 -9.98965 15.8628 251 0 44
-39.8103 -9.98965 -21.5616 251 0 44
0.875993 -9.98965 25.1202 0 251 44
17.58 -9.98965 27.3014 0 251 44
-10.5945 -9.98965 23.0292 251 0 44
11.1481 -9.98965 -45.7096 0 251 44
46.2482 -9.98965 -49.8315 0 251 44
0.284753 -9.98965 2.50001 0 251 44
-18.7552 -9.98965 -12.5813 251 0 44
-38.692 -9.98965 9.76615 251 0 44
22.6353 -9.98965 9.59728 0 251 44
17.1448 -9.98965 33.2662 0 251 44
-11.4791 -9.98965 -32.7071 251 0 44
26.5354 -9.98965 -36.3565 0 251 44
6.48621 -9.98965 8.31197 0 251 44
16.2233 -9.98965 -34.4916 0 251 44
-25.7961 -9.98965 -44.0746 251 0 44
-47.7148 -9.98965 -16.752 251 0 44
-27.9798 -9.98965 4.42164 251 0 44
17.3616 -9.98965 -8.75115 0 251 44
-47.9311 -9.98965 25.8163 251 0 44
-38.3546 -9.98965 7.09262 251 0 44
-35.9304 -9.98965 13.7475 251 0 44
-2.74532 -9.98965 24.3836 255 0 0
-34.0707 -9.98965 20.3062 251 0 44
-43.7328 -9.98965 15.0971 251 0 44
-38.0423 -9.98965 -20.1716 251 0 44
-27.4239 -9.98965 -33.0765 251 0 44
16.1935 -9.98965 -40.4046 0 251 44
-16.8922 -9.98965 18.0759 251 0 44
-2.96422 -9.98965 38.7091 255 0 0
-28.7216 -9.98965 18.3011 251 0 44
9.40107 -9.98965 25.1135 0 251 44
-28.4461 -9.98965 -20.1523 251 0 44
-38.3388 -9.98965 27.3374 251 0 44
-44.5574 -9.98965 43.9192 251 0 44
-15.6552 -9.98965 21.7133 251 0 44
-2.5594 -9.98965 22.2857 255 0 0
-28.9776 -9.98965 29.7987 251 0 44
14.863 -9.98965 -4.58627 0 251 44
-47.6336 -9.98965 14.0564 251 0 44
-7.47078 -9.98965 27.8906 251 0 44
-30.1587 -9.98965 49.8777 251 0 44
6.70694 -9.98965 -7.35415 0 251 44
44.248 -9.98965 -31.6945 0 251 44
-7.65796 -9.98965 12.6608 251 0 44
-48.5446 -9.98965 44.9677 251 0 44
34.8855 -9.98965 18.6647 0 251 44
48.5799 -9.98965 -22.029 0 251 44
-21.5654 -9.98965 -25.0175 251 0 44
28.3436 -9.98965 -4.2332 0 251 44
-39.4437 -9.98965 -34.0571 251 0 44
38.5338 -9.98965 -10.3985 0 251 44
-47.4928 -9.98965 -38.3919 251 0 44
47.8915 -9.98965 -33.6843 0 251 44
35.2836 -9.98965 49.0048 0 251 44
25.9262 -9.98965 22.1219 0 251 44
-7.74681 -9.98965 26.4537 251 0 44
43.1191 -9.98965 -27.5979 0 251 44
21.2911 -9.98965 -48.7358 0 251 44
14.015 -9.98965 46.6809 0 251 44
-30.8241 -9.98965 44.8873 251 0 44
-10.9436 -9.98965 20.0257 251 0 44
23.4455 -9.98965 48.629 0 251 44
27.2974 -9.98965 -48.3188 0 251 44
-34.0807 -9.98965 32.7172 251 0 44
-31.746 -9.98965 -42.8659 251 0 44
49.6979 -9.98965 -8.96044 0 251 44
-49.4359 -9.98965 3.01503 251 0 44
14.236 -9.98965 13.7915 0 251 44
19.1195 -9.98965 -30.0322 0 251 44
-2.2133 -9.98965 46.7116 255 0 0
13.1338 -9.98965 18.8657 0 251 44
14.033 -9.98965 -43.9584 0 251 44
-37.8258 -9.98965 41.6021 251 0 44
-5.0955 -9.98965 -38.3178 251 0 44
-11.4395 -9.98965 22.4125 251 0 44
20.969 -9.98965 -44.2143 0 251 44
-48.9696 -9.98965 -49.0409 251 0 44
17.0292 -9.98965 46.6727 0 251 44
1.9149 -9.98965 2.75247 0 251 44
-43.9943 -9.98965 16.6117 251 0 44
-45.8609 -9.98965 -46.5684 251 0 44
-2.61161 -9.98965 8.32888 251 0 44
-12.6145 -9.98965 -34.6561 251 0 44
4.82474 -9.98965 -25.9516 0 251 44
35.8233 -9.98965 5.7919 0 251 44
-0.55854 -9.98965 -33.5478 251 0 44
-36.0931 -9.98965 -46.5275 251 0 44
35.6046 -9.98965 45.3803 0 251 44
-15.5754 -9.98965 -37.4537 251 0 44
8.48289 -9.98965 39.822 0 251 44
-9.6197 -9.98965 -7.69265 251 0 44
26.8288 -9.98965 -26.9422 0 251 44
-0.424394 -9.98965 -48.4604 251 0 44
26.231 -9.98965 15.2005 0 251 44
10.873 -9.98965 -16.1743 0 251 44
-9.24249 -9.98965 -14.4838 251 0 44
45.1383 -9.98965 8.67153 0 251 44
-11.7305 -9.98965 -22.3886 251 0 44
-5.16682 -9.98965 29.1328 251 0 44
-18.306 -9.98965 -5.82266 251 0 44
-1.53015 -9.98965 40.423 255 0 0
-23.613 -9.98965 -3.89494 251 0 44
